-0.005885993898 -0.018664131281 0.064720515194
-0.011748051370 -0.052133425569 0.051292535194
-0.015259178246 -0.167054895712 0.037989272238
-0.021671578749 -0.145356112217 0.063477686987
-0.013630538910 -0.167655876437 0.000823908066
-0.016057421571 -0.153740176815 0.088749281697
0.010795022126 -0.125819121061 0.083971218274
-0.023193794598 -0.172722670899 0.026593851855
-0.000856199570 -0.171846780914 0.046441161586
-0.023154158171 -0.180964172773 0.062249419164
-0.008643554937 -0.117048045531 0.006148221691
-0.003625270914 -0.183086439284 0.020889665469
-0.027863780845 -0.178702009969 -0.013543542841
-0.039266199209 -0.108150088430 0.037223246210
-0.027297110827 -0.166535079337 0.029820033131
-0.002544459483 -0.181106174922 0.024635171638
-0.022912715024 -0.175029543500 0.026269944694
-0.003487681252 -0.145732801720 0.016801656608
-0.035143821059 -0.125576297291 0.023983023470
0.007851121400 0.119311258549 -0.037048259592
-0.034794778512 0.098327132903 -0.066735645904
-0.014610052845 0.123861061699 -0.033036621207
0.012943794261 0.134597965826 -0.014399066560
-0.036991444695 0.114285840965 -0.062610994941
-0.016524767350 0.106881081380 -0.069023694383
-0.002894852421 0.068412140947 -0.060698887891
-0.021106013896 0.120416885269 -0.065703878598
-0.027985701503 0.098122053737 -0.053384055888
-0.030756852668 0.124895140928 -0.053981475862
-0.014910242369 0.117992601453 -0.054105974551
-0.011270128136 0.113657766776 -0.053619460615
-0.025489564937 0.062556006814 -0.023626409695
-0.003617454976 0.034366418962 -0.073426750075
-0.011489518433 0.024132051708 -0.029307922726
-0.002209524789 0.014802227526 -0.062105354777
-0.046746761948 -0.008936610861 -0.067812629335
-0.031707999073 0.041258495206 -0.083836523380
-0.012255836016 -0.022529829475 -0.102922033406
-0.016821859466 0.061427062759 -0.019185682732
-0.037693122790 0.037122790698 -0.049421919994
-0.031065233185 0.025871218325 -0.067895117463
-0.022600560433 0.046038773657 -0.066018161720
-0.020076260507 0.005801471792 -0.035419780568
-0.004665358947 0.046013828981 -0.042540039109
-0.020154924206 0.018583381496 -0.078251462168
-0.011820560049 0.057960384792 -0.081689693259
0.005954710854 -0.014824126180 -0.016835251835
-0.011855094905 0.059678034295 -0.039063285239
-0.008061409927 -0.017591410799 -0.041992678706
-0.014169286397 0.084799551573 -0.076671110971
-0.034899126698 0.103393545326 -0.112055021596
-0.036946702018 0.136523397515 -0.092437715519
-0.046280413062 0.041477357798 -0.080662412370
-0.022174855623 0.108033465012 -0.093718540391
-0.049117934581 0.108802098899 -0.100689225312
-0.008325610543 0.144833431715 -0.079178953819
-0.013185492552 0.148705585577 -0.091795076323
-0.020923068420 0.153464499261 -0.106343550826
-0.021766908571 0.093764332224 -0.094822081328
-0.037943002965 0.140378312924 -0.064170722127
-0.032628287645 0.126931077839 -0.057744728268
-0.046982246759 0.129951517633 -0.105097718300
-0.031624937791 0.094593156836 -0.084481973225
-0.034062445476 0.112979691576 -0.067261301725
-0.040928612657 0.024212260041 -0.084038343117
-0.011723625447 0.042568293876 -0.091246274787
-0.030345076334 0.037870360726 -0.102579781243
-0.016039415769 -0.000589603639 -0.090554158734
-0.042741629069 0.030793563910 -0.086676042036
-0.073597403691 0.024098173010 -0.109903092231
-0.030893443476 0.075129504467 -0.072730449194
-0.038766129302 0.001514557424 -0.104169689481
-0.053824281933 -0.011291654236 -0.056283154151
-0.043694595645 -0.016707802207 -0.107642687600
-0.024173696500 -0.010177396828 -0.080063610356
-0.018905074140 -0.014858238725 -0.064731680363
-0.037794129515 0.058724187920 -0.106594452158
-0.017164016707 0.031408144998 -0.065657623447
-0.081781540700 0.045399732284 -0.107368741884
-0.077902860421 0.092777377664 -0.166592456288
-0.115400814685 0.106670687254 -0.157130134484
-0.134335911955 0.058279022265 -0.159369174170
-0.084759643866 0.064710798244 -0.163751729168
-0.112059550733 0.131952746678 -0.150742442865
-0.041357530305 0.131167760342 -0.139703838533
-0.106968680158 0.076429745019 -0.167941342152
-0.110833091862 0.088288384480 -0.189434367341
-0.146834068279 0.107309354985 -0.182135594054
-0.102947328251 0.077953920663 -0.141297643744
-0.124018805077 0.115717430638 -0.159984291491
-0.102102682034 0.132852542856 -0.149757772374
-0.128851252654 0.100099491889 -0.124141222394
-0.089245863775 0.057037553220 -0.134292181705
-0.084426767511 0.130493835533 -0.161205191444
-0.091751019837 0.001961996672 -0.159166344790
-0.090091294518 0.023042143678 -0.144508611928
-0.099603936525 0.013550180796 -0.132186417452
-0.104972008439 -0.000061736273 -0.102436894766
-0.092681714335 0.018717374974 -0.169119753864
-0.107229972016 0.030808603752 -0.139569808200
-0.064480326055 0.012047619483 -0.115363033046
-0.132576416475 -0.023557586405 -0.171023313931
-0.070594944954 0.044673654990 -0.143993041530
-0.114192546908 -0.030841814440 -0.155497307769
-0.089859289427 0.034414408458 -0.142190459173
-0.108989910764 -0.011872658607 -0.201415138081
-0.131774176929 -0.003999602748 -0.149855959239
-0.115871360107 -0.004466317122 -0.167442933736
-0.085721423640 0.061270582843 -0.166232539751
-0.157720910203 0.097295317687 -0.178744921275
-0.120138198596 0.049092357939 -0.178759567589
-0.120917049574 0.137635943026 -0.181573613897
-0.139769694663 0.112411744602 -0.175369628190
-0.153154430785 0.133052339937 -0.178751461751
-0.086253497672 0.128339541646 -0.160202525074
-0.141813925772 0.073331321361 -0.167809298568
-0.154936296657 0.142506009516 -0.185485487932
-0.147750128586 0.067554900143 -0.175944282016
-0.087785733755 0.054080933847 -0.162249968583
-0.127749584968 0.143064495613 -0.188732039754
-0.165175902746 0.119716772647 -0.182826996938
-0.183703321380 0.144452823424 -0.201161220847
-0.166480582372 0.076485841038 -0.163109498016
-0.161047026206 0.125231171244 -0.180398447465
-0.151033373958 0.007078635390 -0.171046510094
-0.113516038429 0.049513435803 -0.171102480733
-0.171770882543 0.022790234121 -0.181611801794
-0.127652018084 -0.009828876612 -0.152933000765
-0.142667421817 0.003409388606 -0.161230811600
-0.114374694728 0.020038321092 -0.166748592164
-0.133718005856 -0.005122922317 -0.177210218497
-0.155360411559 0.058949689176 -0.155707864350
-0.110993632724 0.035221001750 -0.179041243289
-0.114757972539 0.026679814408 -0.153465696762
-0.153992316113 0.049609087399 -0.162013957059
-0.170981419024 0.009742595302 -0.183782490203
-0.195782414973 0.048985162487 -0.182988724885
-0.163321592105 0.037355930008 -0.161558530345
-0.189043571673 0.120679657171 -0.170588696911
-0.181805084457 0.116535676908 -0.191601130001
-0.223978731897 0.089266059494 -0.176105400535
-0.185628281421 0.095442155073 -0.175141111624
-0.182647277771 0.061383354976 -0.187338864082
-0.189683706885 0.101297112307 -0.172207991152
-0.208327807128 0.100875541453 -0.164716856322
-0.197757293492 0.086921965546 -0.208004873667
-0.185127610577 0.137606005519 -0.181840692064
-0.219643444769 0.118329592646 -0.216407481464
-0.204100828033 0.098430290778 -0.152806096238
-0.233155658799 0.149955009156 -0.189328595071
-0.203734497611 0.112607540085 -0.163782026642
-0.203531549750 0.058471551740 -0.184968969551
-0.180686416255 0.054646911601 -0.193949813148
-0.192062920467 0.015825417325 -0.176778869618
-0.205882375613 0.036453776458 -0.179971893887
-0.221158997321 -0.006389211603 -0.194312928607
-0.228943939211 0.018231497399 -0.160024943664
-0.238788176125 0.040065849841 -0.171084145870
-0.228549015597 0.016638035801 -0.178266588397
-0.194413191105 -0.007871042874 -0.186546582415
-0.233524226513 0.051459533844 -0.172105592989
-0.193127099746 0.019039543234 -0.156399322544
-0.187384017628 0.060352382652 -0.178736111096
-0.177567198503 0.036375108409 -0.183473215079
-0.216736113620 0.018241182115 -0.158897573632
-0.204997904519 0.010655613016 -0.173274456362
-0.266741941108 0.142549995538 -0.170765780166
-0.298856388464 0.118010339229 -0.150702745756
-0.279468724815 0.096540508317 -0.170809646775
-0.279049337635 0.103065155821 -0.158200046626
-0.211258896815 0.109368148968 -0.174130180066
-0.280449092730 0.145358920142 -0.147432282957
-0.251986491529 0.092506948812 -0.134177709839
-0.267458002793 0.089356277075 -0.178499363854
-0.282936993165 0.079267081081 -0.172974399553
-0.288725691112 0.103021206025 -0.161752420494
-0.245292535015 0.064946281987 -0.167320509462
-0.261661739240 0.061791467465 -0.185967342442
-0.270588201556 0.100540667489 -0.169295709732
-0.240390619320 0.122051592288 -0.174234819567
-0.258277206734 0.024011212153 -0.186706701551
-0.248305001545 0.090096595678 -0.147317270687
-0.254969236588 0.029422419422 -0.139865451437
-0.262932422838 0.020572394476 -0.167461984386
-0.250467713151 -0.003112532341 -0.167320811606
-0.258799970863 0.025049521413 -0.149675430133
-0.218467264593 -0.004471943810 -0.161669745638
-0.268535680492 0.018390740862 -0.147924319329
-0.248572460500 0.020152245917 -0.184956241288
-0.262128711825 -0.022942045554 -0.153713721101
-0.302450689317 0.047471532850 -0.162246946393
-0.267294551898 0.026859158006 -0.136240008867
-0.266801555040 0.037536636480 -0.167080926819
-0.237270189886 -0.035472199206 -0.181156460015
-0.356230908122 -0.007758038329 -0.017077367291
-0.355690594124 -0.008979085952 -0.073695296102
-0.355600017092 -0.017853456183 -0.050893111241
-0.340307767820 -0.031423294202 -0.038003056591
-0.343391204771 0.014133602861 -0.074098135279
-0.369071449648 -0.021797245814 -0.040621496496
-0.376821280976 0.006835170665 -0.083522909977
-0.391852204592 -0.059414602856 -0.038756761855
-0.360464413634 -0.035795076097 -0.057492735748
-0.356870553723 -0.052507901231 -0.078473493483
-0.335497864750 0.002117860257 -0.084148360701
-0.360667981208 -0.026503104819 -0.052322657019
-0.345983389804 -0.010783722212 -0.056814631599
-0.367727520326 0.058755019786 -0.028837041843
-0.370469380620 0.100024562472 -0.086001859770
-0.371740544345 0.070309812696 -0.052582700034
-0.350649097410 0.089686011152 -0.046661327397
-0.336177199310 0.075553577702 -0.085375559308
-0.321312483702 0.085199148439 -0.073809223301
-0.346556616208 0.021544215987 -0.079693588782
-0.356066134213 0.053801076187 -0.067063819619
-0.351007453646 0.122998629195 -0.114602205573
-0.379531323474 0.047257642646 -0.068723899857
-0.348356623234 0.062169726051 -0.093125065783
-0.339640928968 0.070686112671 -0.074353038962
-0.371031015900 0.055849902401 -0.049647996836
-0.361273623211 0.131416837760 -0.100081233561
-0.336787968472 0.068326050784 -0.107307875979
-0.315976474252 -0.013964010267 -0.114762145809
-0.317328414461 0.018776960463 -0.117739052029
-0.311358371960 -0.010824587090 -0.115796863646
-0.307189960959 -0.023486768776 -0.159203023048
-0.336439533883 -0.009557285059 -0.088273478193
-0.323047094158 -0.029453290100 -0.119051259453
-0.353410291003 -0.003160119613 -0.090523880973
-0.288384928503 -0.045332963484 -0.132233744152
-0.320794434961 -0.007287675295 -0.102941035958
-0.361172906114 -0.042940278030 -0.087773471498
-0.366687609115 0.013629409471 -0.086277216490
-0.320950866268 0.002245373423 -0.121980202456
-0.365988740123 0.100080753572 -0.064039300307
-0.321689863934 0.032422785212 -0.123420495717
-0.314214493257 0.070876296305 -0.134687451637
-0.349880306120 0.055694020498 -0.102514505577
-0.378419300491 0.039496600793 -0.075676345923
-0.331078775257 0.105548500941 -0.103415793483
-0.341320537210 0.053191069024 -0.100483530949
-0.297134268545 0.081829417569 -0.123432051553
-0.322667995040 0.088405306664 -0.123695936651
-0.343874794259 0.112357529366 -0.100018178685
-0.349556192670 0.101713766238 -0.099611693608
-0.327870060150 0.048060372348 -0.133909428061
-0.344577778449 0.053179715458 -0.100062193928
-0.320957792286 0.084453660473 -0.094530772218
-0.322477179695 0.024086053751 -0.071838511844
-0.350110033332 -0.013984660757 0.077089596138
-0.337406267902 -0.010363857565 0.104905848828
-0.361556000117 -0.001741223530 0.060770907441
-0.336173885992 -0.026821430823 0.088687616960
-0.356489720832 -0.045724045052 0.057395492264
-0.372389619168 0.034784870912 0.048040881593
-0.358787313016 -0.005688063246 0.092374780636
-0.358435102750 0.010380079024 0.023067654495
-0.338024442047 -0.004596542591 0.054256267295
-0.361510322986 -0.024407134268 0.058734547309
-0.381238905793 0.004372322597 0.065057225633
-0.365352167292 -0.037925479032 0.032253342500
-0.337016973091 -0.055412071070 0.052415975513
-0.376568289069 0.012537987369 0.063344153710
-0.348220755039 0.091407133300 0.036143875690
-0.360616938470 0.056972260889 0.023243403024
-0.349148203575 0.151274815424 0.048385722603
-0.336316722783 0.058252893771 0.058839471232
-0.363144917855 0.078665405066 0.062749046441
-0.339994573483 0.105830104413 0.046967251818
-0.404403770220 0.106558648466 0.061275744213
-0.361667179386 0.058159723692 0.064344483342
-0.342221034570 0.119412660205 0.057486953436
-0.358153535011 0.078972381798 0.069889787375
-0.345271871489 0.084867700515 0.020493460000
-0.358644542829 0.053954508350 0.041278195924
-0.367389920022 0.109652077404 0.047712816744
-0.350366562074 0.086378310747 0.084722080835
-0.392519987436 0.095005681849 0.059922199009
-0.338771099260 0.072388874001 0.115533207240
-0.374110529686 -0.020793397402 0.050392627926
-0.339227506295 0.001369544122 0.006355110604
-0.358533987911 -0.032924747384 0.024170634812
-0.351830598026 -0.025906843089 0.009429997200
-0.356012714171 -0.005110235093 0.028653795431
-0.348008797838 -0.001134974630 -0.001681159221
-0.360066261167 -0.048102848559 0.029909878129
-0.384939817226 -0.055395644351 -0.004113513598
-0.380617547038 -0.010055411667 0.001087264740
-0.357996188921 0.046260959046 0.032421463985
-0.381540079524 0.015397938870 0.075744551896
-0.357122666937 0.014056687377 0.053079405975
-0.372526100893 -0.003541042649 0.025613767567
-0.356829357599 -0.041081460503 0.036808124126
-0.371697111123 -0.039459095234 0.031974797215
-0.377155341792 0.072849331201 -0.041066154923
-0.359389766986 0.050164290371 0.009038170911
-0.348827200675 0.045727609896 0.003433922861
-0.394966525194 0.064609569717 -0.042849976170
-0.373353054130 0.070778778472 -0.012169630661
-0.361879211230 0.127705278998 0.006337348541
-0.372149860568 0.060365772644 0.003706738053
-0.356870992303 0.087417409866 -0.020234971486
-0.352895962456 0.039521993263 -0.000579269715
-0.360079799962 0.101891599924 -0.019639967005
-0.360810294837 0.049904850592 0.016462655832
-0.384886406958 0.079233055133 -0.015394990791
-0.402394721686 0.114015438044 -0.058811285370
-0.382936173752 0.031088962684 -0.010970427980
-0.277312463380 -0.004012049191 0.166429967112
-0.227677845603 -0.037936657622 0.159906519616
-0.262259354072 -0.045396083782 0.162752712194
-0.244870742516 -0.005452421935 0.176006527628
-0.258180381075 0.042659494058 0.180322295968
-0.244901195551 -0.023507069267 0.152060142874
-0.272275010345 -0.035539690944 0.146461748770
-0.227323541303 -0.009102809355 0.163049547308
-0.258060894389 -0.030638980499 0.151896538756
-0.272773129616 0.033987119821 0.175701439205
-0.268095966931 -0.004762577564 0.158500824187
-0.245931284530 -0.001523587062 0.165095111364
-0.217035835978 -0.015794158221 0.155169236672
-0.197454854270 -0.046446812924 0.200062356703
-0.265368189864 -0.034434983016 0.147372496173
-0.243025755593 0.083417615914 0.181927858367
-0.259235549285 0.052332300605 0.163750468481
-0.273998785750 0.041507387385 0.157086657252
-0.247484004172 0.050397399479 0.157778664629
-0.231688046849 0.058032339047 0.189958444975
-0.231297687285 0.087927616558 0.166124910841
-0.269958099508 0.095504347642 0.149452402522
-0.246550144185 0.058835482426 0.171663464456
-0.265755348591 0.079882729851 0.160517930782
-0.265971098478 0.034466684185 0.159277067942
-0.263481275199 0.109548571126 0.143898146916
-0.271687773518 0.047704723043 0.165912097897
-0.222876416978 0.102661696572 0.150262316889
-0.243127881742 0.083575269792 0.141009027715
-0.294192343927 0.087107528770 0.132898665785
-0.235084608877 0.051957016928 0.129412836149
-0.284067828020 0.099741591744 0.150689629222
-0.283901660226 -0.025329836612 0.130764715357
-0.321290708639 -0.046013107237 0.133941826727
-0.275557762379 -0.005266185762 0.171452809503
-0.337010360444 0.000094445737 0.120332033668
-0.316172623137 0.004908161311 0.176663527335
-0.285498785736 0.029425739078 0.135840655805
-0.274236289472 -0.009050456085 0.111131650535
-0.274143320885 -0.013450961655 0.149191655428
-0.286178480945 0.037508059742 0.145133937110
-0.265309386412 0.022559189860 0.123056118962
-0.295168171598 0.026612444112 0.163776945344
-0.269872349588 -0.026648787188 0.146530118857
-0.271738677853 -0.014454598391 0.137374993090
-0.324561713190 -0.046659317732 0.116832203270
-0.310070221482 -0.010232073918 0.113371095220
-0.313269352436 -0.057945285453 0.132570954345
-0.322887175478 0.072955299193 0.121417198781
-0.324161858451 0.044951321063 0.147832394976
-0.331234178810 0.033933497056 0.123134193503
-0.306386451033 0.104074045534 0.111599296703
-0.326534097665 0.073679727177 0.117541995199
-0.322125767722 0.042368593349 0.117612393938
-0.352500164698 0.079057623399 0.128411176863
-0.323575306430 0.060968335030 0.126292630910
-0.321177619374 0.079975337902 0.129285253778
-0.272093111446 0.008663728005 0.156729784630
-0.337204877682 0.063386643467 0.094787455746
-0.315433451860 0.038675834562 0.129441059939
-0.334307406030 0.023814059823 0.090678917865
-0.284241074868 0.076101832551 0.121741830019
-0.315805457598 0.111609797175 0.132141936010
-0.323857783744 0.074148959642 0.145211013945
-0.068717356632 -0.001801658432 0.117734376158
-0.088379041485 -0.047335285141 0.203562855532
-0.065659026271 -0.021319111819 0.116831177465
-0.088312951056 -0.016273617979 0.163146808116
-0.073644235886 -0.001255961326 0.144942617527
-0.102376697315 -0.016860854634 0.127162635837
-0.093374197247 0.035027108604 0.128989416353
-0.149860611221 -0.038134096633 0.174685860450
-0.115112069146 -0.023867520691 0.150878498420
-0.113824742126 -0.024556703809 0.151619134114
-0.093833936953 0.011171827708 0.147700352565
-0.079836117279 -0.026109038363 0.133804140928
-0.089719585792 -0.021169672218 0.117318289050
-0.068577871108 -0.055215601362 0.133733513903
-0.081724787986 -0.018154606365 0.118936788833
-0.146405123232 -0.020446501474 0.149201413451
-0.133806745162 0.069208840889 0.171780375593
-0.078563264068 0.116249314140 0.142531782792
-0.086610637027 0.093262900211 0.127371568259
-0.069236253405 0.129454805302 0.132480601467
-0.080734005011 0.075286061588 0.122136629075
-0.045043022681 0.051706034675 0.133614543604
-0.035284512545 0.047939257733 0.131533906112
-0.083965465924 0.092137575321 0.144906381802
-0.082726019057 0.093838941736 0.133365026979
-0.117411379897 0.091403435178 0.159751151664
-0.097834808470 0.081541342744 0.161029133978
-0.077917488388 0.050202752220 0.127798455248
-0.096784847396 0.078463120282 0.193374375175
-0.062732784292 0.098173573676 0.124160096391
-0.071972754066 0.038522757506 0.121176667438
-0.108510885200 0.092161532358 0.153848688522
-0.142406939724 -0.003834134949 0.153290392287
-0.159283491181 -0.040817225875 0.183788673441
-0.168605768490 -0.028798120637 0.187064471789
-0.211229267124 -0.044307571711 0.189184743966
-0.122053897626 0.031592990054 0.130969548343
-0.129081294652 -0.028442198740 0.165787968856
-0.128528113685 -0.022423760041 0.190007859626
-0.163305422094 -0.001773538790 0.182209043653
-0.188305165895 -0.033161828725 0.180300084108
-0.099650005199 0.007099273827 0.169479637695
-0.213648601933 -0.006169342122 0.173871492460
-0.138718400540 -0.007113201094 0.176335762357
-0.194716763608 0.001008012077 0.146448836335
-0.138081893417 0.044851634642 0.169990059741
-0.178468905980 -0.021837688245 0.160997583368
-0.116976164618 0.056776799736 0.165491192850
-0.151073112384 0.062437961242 0.167120268607
-0.148186280850 0.093390134733 0.160379086602
-0.149968631674 0.060002618285 0.160980943840
-0.215840558249 0.085245850942 0.177028513899
-0.194550342514 0.077392123919 0.181804638258
-0.158532954685 0.105812552898 0.188254695413
-0.136178652362 0.049980436268 0.164763934579
-0.170449722397 0.074437704170 0.179027510371
-0.156802895852 0.092585059086 0.188837837117
-0.168718850796 0.074449664638 0.195725910950
-0.177684645447 0.096546970237 0.202363317435
-0.140661159569 0.097552482704 0.160687262273
-0.145969393658 0.114841650909 0.167178666071
-0.185524495916 0.083622848766 0.193322668549
-0.172706063839 0.058936008668 0.169919024907
-0.158382338272 0.052866712664 0.185657013486
-0.139418513731 0.080101513815 0.168526093651
-0.049890511062 0.092629403383 0.104718907059
-0.045064518448 0.121604437171 0.109073046862
-0.039232035433 0.110519565110 0.131569833683
-0.064023915703 0.107375120230 0.112864410889
-0.063774499144 0.113799295034 0.147848644533
-0.016706804053 0.117201126428 0.069913306572
-0.064700367458 0.053317605803 0.123341145936
-0.036973064285 0.089772326175 0.135517160239
-0.034779374352 0.127944043460 0.127726644814
-0.064643503046 0.057446747183 0.148916207509
-0.062806083996 0.084893362346 0.126002925572
-0.058185169951 0.147484522529 0.131751305218
-0.021090560354 0.152340892477 0.103751775969
-0.056596604155 0.114072973130 0.094738396551
-0.042304989891 0.104268747130 0.109766564893
-0.080952436914 0.141983920838 0.112905962222
-0.042300322554 -0.041831868216 0.142438552440
-0.056495950188 0.029782740468 0.103639843048
-0.072919009049 0.018806587063 0.139814792529
-0.078278011252 0.059707996851 0.134540304187
-0.075462912729 0.014104892289 0.135158046640
-0.053019671868 0.029564923396 0.116399608051
-0.037966602002 0.023273085794 0.100339607644
-0.073961205641 -0.001033364580 0.140015582597
-0.050785616281 0.025865663136 0.131004365811
-0.010181962849 0.040765504061 0.068844621388
-0.032582671998 0.045147532123 0.096938348394
-0.055648316831 0.024261062324 0.108262275193
-0.042200049571 -0.000313009496 0.121035473899
-0.066797690650 -0.005178262716 0.104685161942
-0.031366792268 0.037192614584 0.090855330657
-0.049182046382 0.032568528418 0.062720725498
-0.029070676397 0.094828129495 0.067713689308
-0.042485035200 0.098487584916 0.012620837124
-0.033360654743 0.131060776284 0.021391772010
-0.011918459517 0.110698950116 0.062089473465
-0.019732963807 0.114315140874 0.002563004874
-0.022030825985 0.107408817964 0.028238843885
-0.027905070796 0.116138117045 0.075134498589
-0.016150624568 0.066869949593 0.050997905635
-0.008804067164 0.143098911914 0.006526517408
0.000868217250 0.120130807713 0.061079114663
-0.024058928329 0.129828702253 0.026963704457
-0.033845847436 0.093977623457 0.058121416497
-0.019800577267 0.138493294675 0.031894240786
-0.038446319946 0.106663742271 0.090613769276
-0.029019292344 0.114454648033 0.033071458087
-0.017500964180 -0.007109757279 0.049291380493
-0.020705782546 -0.002304744568 0.021091313859
-0.010828884018 0.025924530427 0.017463766620
-0.038788216035 0.017462234853 0.095755428114
0.000623532318 -0.008123242383 0.030198707827
-0.001302023685 0.016986701266 0.017877499243
-0.048370234906 -0.009819948850 0.028075286185
0.010272110579 -0.001232484504 0.010632948322
0.008346849439 0.056485478168 0.025811410246
-0.038901607994 0.007410234001 0.043214345250
-0.035591507330 -0.001799818039 0.021833613978
-0.024312019565 0.053678711165 0.055903788793
-0.012172228718 0.035365119921 0.063632020837
-0.042508302435 0.014158523519 0.057460978706
-0.000223912965 0.060641576879 0.106246468916
-0.023643680311 -0.005729469709 0.069142165239
-0.005595302522 0.293890561512 -0.051450409604
-0.012589954450 0.276091465460 -0.009309310732
-0.048607003355 0.296594241811 -0.027830365871
-0.019378527047 0.241306481586 0.003366847131
0.002870764598 0.299093501663 -0.002617169063
0.000150562831 0.251074911881 -0.009231160601
0.004368212709 0.224116318695 0.035807519758
-0.019853859275 0.229576189356 0.022269314504
-0.013141992213 0.259806438101 -0.002760824400
-0.026359839476 0.303283374109 -0.029302920409
-0.014477987019 0.313106724359 -0.001165008062
0.005939844483 0.196885249266 -0.038735514185
-0.032008260877 0.151224022468 -0.002597022189
0.000710996378 0.172155203802 -0.009851753414
-0.037958306087 0.137377877995 -0.005678302637
-0.021494650943 0.204544880834 -0.037671716380
-0.030514012830 0.202246995338 -0.018742259126
0.001024826112 0.209805657313 0.011894806067
-0.011465709958 0.213081992099 -0.020392341265
-0.015049039768 0.146857444275 -0.010551529682
-0.027923534597 0.173922165468 -0.026031374081
-0.027158667990 0.149647801375 -0.036955995859
0.002504541745 0.180570030196 0.011924456113
-0.027756201405 0.165864230883 0.008682878231
-0.016710001066 0.192114329934 0.019569891277
-0.004185787108 0.210721971799 0.024893657901
-0.032333762147 0.294918637750 -0.065799056149
-0.026936168748 0.305518760225 -0.095777813445
-0.013388337230 0.302713546994 -0.042815451596
-0.041628855731 0.275874550632 -0.076563095411
-0.053455893958 0.244844772923 -0.071474771196
-0.041674371219 0.264282557900 -0.085012077622
-0.031043462604 0.301744009873 -0.095337348021
-0.021048139296 0.307508209330 -0.101497282272
-0.021902249433 0.245006194392 -0.078815433237
-0.006918153294 0.224896920548 -0.029347097205
-0.011043915761 0.210862645839 -0.022020929656
-0.015451314417 0.312572653291 -0.055667353045
-0.048505749001 0.318513413354 -0.124176823694
-0.054737260382 0.280014029530 -0.091190180398
-0.039855146588 0.293337748498 -0.076982646047
-0.062335377881 0.233811487497 -0.098616009621
-0.019668389609 0.302856799363 -0.064815119464
-0.032121750737 0.273135349372 -0.047785173978
-0.002564632332 0.185457405683 -0.062799752219
-0.042404644534 0.192746035199 -0.093054280630
-0.027333453729 0.158355520369 -0.057605506137
-0.038655164491 0.186438299940 -0.126013013963
-0.014712075644 0.146408593353 -0.087041666951
-0.041572849112 0.163139308793 -0.064936289680
-0.054785227051 0.196556306235 -0.126221207754
-0.054474430871 0.190641580717 -0.141744241893
-0.011346506233 0.155195151057 -0.060795677371
-0.022282873471 0.174318479458 -0.072528728619
-0.020826156480 0.226498421844 -0.099066324066
-0.022050887164 0.235975215056 -0.094211487296
-0.014784847964 0.217034909192 -0.114392485780
-0.010311315357 0.211829796164 -0.056858177176
-0.030391883815 0.203718573595 -0.076329998400
-0.049927036732 0.199218996760 -0.089362506876
-0.079527895805 0.219250357084 -0.163221413272
-0.100266022361 0.281669370225 -0.156759578018
-0.083619920119 0.271623444096 -0.154364738802
-0.116040274478 0.272562812928 -0.192850620116
-0.077241389268 0.286690860728 -0.089985031144
-0.112515978793 0.311541319053 -0.149043608960
-0.092181593740 0.267598562216 -0.152771086733
-0.111992919851 0.261769732284 -0.158971210643
-0.096660571412 0.303351481023 -0.168296223404
-0.121147185679 0.298251236292 -0.129193407708
-0.102195855208 0.271092050469 -0.148484905376
-0.059142883123 0.312413815725 -0.131486956620
-0.063239140815 0.295890661908 -0.119112110298
-0.072838234377 0.290722777089 -0.120562333492
-0.121148708869 0.298200854470 -0.166786188586
-0.078492965842 0.325029679728 -0.141317206964
-0.088904095685 0.302523937615 -0.158934319083
-0.049710936077 0.308419704722 -0.128832194781
-0.140253736898 0.228793766444 -0.171242552771
-0.093639254425 0.231251487385 -0.159761810541
-0.126619107270 0.203518186502 -0.158832586075
-0.100910159425 0.243132255485 -0.129157799278
-0.100125356715 0.193305590426 -0.138896343182
-0.156542302140 0.161761449332 -0.170433267563
-0.090871641695 0.208343203757 -0.165352230417
-0.127857329444 0.186381150774 -0.168227282950
-0.066202435012 0.189572240963 -0.117374894639
-0.075639492691 0.180069497948 -0.173221354873
-0.119328242905 0.163135254713 -0.166946622658
-0.046049280639 0.222306324445 -0.106071900283
-0.090756554172 0.187908839819 -0.132153050136
-0.123427045158 0.206112396323 -0.158909143438
-0.089924360294 0.218789144857 -0.116440673913
-0.068151164693 0.214983295841 -0.125696290269
-0.074122806931 0.204055819732 -0.136870612547
-0.072312622118 0.212342775798 -0.118406491929
-0.158919622765 0.290291932801 -0.196018845028
-0.178557119121 0.258509874752 -0.188980663467
-0.121717241245 0.327875780115 -0.171682640333
-0.206925610120 0.249538648599 -0.175727094631
-0.137984336129 0.321485588456 -0.200373542294
-0.153806481011 0.302639377137 -0.175256687836
-0.168205495505 0.311052476943 -0.200046598487
-0.158401251303 0.281236211024 -0.162861967770
-0.157273521553 0.270915997621 -0.200860090190
-0.176244182406 0.260989430202 -0.181753065750
-0.148490262194 0.270366053587 -0.191513602313
-0.128357444290 0.278551198446 -0.189173246579
-0.132694591278 0.199475021569 -0.193831999575
-0.177798558645 0.196615062221 -0.161323445461
-0.165133110230 0.216473671909 -0.183860130656
-0.125296894613 0.179929779587 -0.140320831880
-0.124231089874 0.196061510819 -0.173361301689
-0.117242822618 0.224430278342 -0.147566232797
-0.114774745977 0.191453355385 -0.156337294503
-0.143570390651 0.210105983010 -0.197123419824
-0.137872478078 0.148979804649 -0.166049450322
-0.169027913974 0.217634335477 -0.188092604416
-0.104426057928 0.216919557754 -0.181413007211
-0.165353495377 0.221330694731 -0.169799808410
-0.113181212668 0.218525117779 -0.139752692617
-0.146241828730 0.213477400954 -0.162009970470
-0.193754683424 0.311737319319 -0.196485871606
-0.186726768924 0.290840775117 -0.152204382095
-0.191067288248 0.263820735030 -0.172259991295
-0.196314451284 0.286693467918 -0.171278725523
-0.213387313882 0.263409845293 -0.170665664495
-0.175158275510 0.293663507471 -0.188513454201
-0.206322219650 0.304650171456 -0.169546258633
-0.196978755036 0.270948312360 -0.183255464287
-0.175444309025 0.280465559155 -0.183494300334
-0.195550902434 0.312802243243 -0.180690635904
-0.176048923272 0.295006423279 -0.175559410426
-0.175670780518 0.240773007723 -0.196902336088
-0.176193185771 0.219855847407 -0.187745377345
-0.176336002914 0.124608800638 -0.174951367650
-0.196720247196 0.141005620237 -0.180891414294
-0.240124370940 0.173780508193 -0.166494334003
-0.211869241189 0.236081420335 -0.169788288090
-0.207766617327 0.226374140659 -0.201781686545
-0.236268516055 0.210892677495 -0.167351865732
-0.186999321713 0.232241046349 -0.174779676784
-0.187401419948 0.183815493230 -0.202182953036
-0.193301673717 0.141938575571 -0.187621076124
-0.189418394279 0.192773152291 -0.168166041415
-0.197168601588 0.188737449660 -0.184345861505
-0.199754385084 0.183633948976 -0.175887475889
-0.210669119841 0.180924213268 -0.173041841326
-0.275768918607 0.302549088312 -0.143949147410
-0.261307158298 0.298906368803 -0.159321216434
-0.238248806964 0.273936701292 -0.161594393811
-0.277142908960 0.310644470095 -0.174510565296
-0.249216620822 0.252939077940 -0.160486230681
-0.250839658972 0.267403714003 -0.162617191088
-0.215676492290 0.292125728430 -0.179175134523
-0.282416413686 0.241880687748 -0.179085389082
-0.300860090565 0.328292891045 -0.132611444506
-0.300700824839 0.286011269103 -0.151913854193
-0.242319774441 0.220083073769 -0.152983817910
-0.255550129066 0.320547077489 -0.176104268042
-0.269790525957 0.260219854834 -0.151806949132
-0.279120911805 0.283823653417 -0.151880596618
-0.244975807194 0.291530733839 -0.150741895503
-0.255637696103 0.289329126606 -0.166725808298
-0.237202737850 0.283015820008 -0.204892518519
-0.275924657639 0.269360825195 -0.167712869824
-0.289532048093 0.308855187284 -0.151196509957
-0.252926079418 0.176604957081 -0.175098804172
-0.297177226488 0.177634829975 -0.170855128454
-0.275473895411 0.202926652676 -0.154825843912
-0.246191402460 0.193912568725 -0.172478136751
-0.236124068549 0.149545810842 -0.178243745098
-0.285838696639 0.177790850062 -0.172321538560
-0.268219448565 0.213932310649 -0.189785717974
-0.277438785330 0.233355732682 -0.160951646544
-0.233770367450 0.217927939450 -0.173506393290
-0.285684640601 0.185003379900 -0.162799833313
-0.255151574741 0.144742542276 -0.145911401907
-0.288600153299 0.205799345212 -0.141450267640
-0.249907876538 0.156857207021 -0.197289357414
-0.230811139920 0.182493488687 -0.162407154125
-0.230799858817 0.159590587420 -0.154545205847
-0.346381843000 0.173612748504 -0.062356171309
-0.387916821440 0.168374745605 -0.053293065783
-0.333136663708 0.208289338121 -0.089905898359
-0.369543634899 0.179077932712 -0.038234998576
-0.323981813366 0.196884320796 -0.093667544706
-0.359822426976 0.167521782813 -0.058524789270
-0.371798121873 0.130142752979 -0.072341312905
-0.341047691590 0.131563572625 -0.094173683812
-0.348555499739 0.133120989064 -0.063739208485
-0.368271775032 0.129497575210 -0.053837797776
-0.354852770656 0.161940864902 -0.039184387925
-0.368973508844 0.142366735971 -0.064970340159
-0.371286500363 0.118405648019 -0.068779698442
-0.371538182748 0.219542777325 -0.089321492683
-0.347243538877 0.240923493839 -0.041417602069
-0.353312667185 0.250693920082 -0.035287993273
-0.376073936171 0.233075986963 -0.023701686940
-0.363846063676 0.272898172995 -0.058741149343
-0.371493103424 0.279224631869 -0.066124167762
-0.379842078442 0.227711953707 -0.075122248801
-0.349915797103 0.233965398567 -0.055359454912
-0.396823811350 0.271597231428 -0.046174605764
-0.368564599025 0.255952136208 -0.071981039209
-0.372567580028 0.209751153226 -0.072309456359
-0.346416948990 0.282077970316 -0.040387989870
-0.397394540979 0.296121956773 -0.050012967437
-0.339429875670 0.235591127083 -0.077840973447
-0.373326765769 0.302180281631 -0.045320454242
-0.360611034337 0.213270062151 -0.080308863931
-0.318341758748 0.243024429439 -0.072711229559
-0.373317593689 0.274013072911 -0.029119762178
-0.334368777496 0.179330952669 -0.091813257679
-0.350988355393 0.143399418488 -0.116709828431
-0.309387531797 0.150480937241 -0.100913904950
-0.319173412897 0.186110400485 -0.095057543763
-0.326199279559 0.133420119100 -0.083675444250
-0.336619564494 0.140808425606 -0.117434248288
-0.336097306892 0.174378862943 -0.086905792856
-0.363412580705 0.154681575679 -0.096270553743
-0.321067831421 0.185974615088 -0.091181415783
-0.318318069400 0.169632374517 -0.136466588034
-0.317730615167 0.158981201489 -0.116585099634
-0.295871365093 0.141556102737 -0.112053400025
-0.323121168829 0.144454647622 -0.093966982037
-0.279188988942 0.262684091207 -0.141807216043
-0.317794814177 0.238886500960 -0.102642482682
-0.344150939331 0.235041557521 -0.098512779771
-0.334536029046 0.270123668782 -0.124218032512
-0.315837767498 0.278918046961 -0.133939828158
-0.314266467087 0.247508451441 -0.142934794781
-0.366792380384 0.200998983681 -0.080756754131
-0.306483794456 0.242313458834 -0.133332925584
-0.315261269042 0.230221602022 -0.147929847859
-0.360550918992 0.232891145437 -0.130417416668
-0.328188749813 0.245932765617 -0.145119864217
-0.290710209911 0.205125665415 -0.144195953144
-0.290821625220 0.294283299163 -0.159811047411
-0.327547416636 0.252584014173 -0.133902240759
-0.301146998936 0.188868662825 -0.119513330155
-0.307893778903 0.251996308099 -0.098631824260
-0.314441230249 0.326435455160 -0.106387832873
-0.331501232357 0.213262046886 -0.129083847814
-0.366856712323 0.172290061210 0.046234114171
-0.340238164489 0.135841970077 0.068840552950
-0.374836686656 0.155853345306 0.045133481140
-0.371526763321 0.112565721094 0.058363545586
-0.334157585412 0.206717496453 0.061875788363
-0.388113383671 0.123861301757 0.064113595216
-0.373729135361 0.172515419112 0.072967213504
-0.353595403079 0.203721684710 0.068098631542
-0.322568578745 0.193385547564 0.054844273910
-0.363229941034 0.157316139282 0.050499585290
-0.349932241684 0.127626395033 0.056010489109
-0.348311925493 0.133431198432 0.109266227203
-0.351093308728 0.159738011879 0.039638476650
-0.349162852382 0.152494200733 0.076266423727
-0.367024361255 0.172093657429 0.071469150868
-0.351420660975 0.228397447783 0.089254668574
-0.357324405736 0.157279125087 0.065073603066
-0.378713407852 0.266895495156 0.094246905030
-0.354069350860 0.285693062625 0.078347740636
-0.349188557112 0.232813013472 0.062457931535
-0.365637064693 0.258767666151 0.088761897291
-0.316098464073 0.282305855149 0.046185540211
-0.404115261876 0.257543304110 0.068671961257
-0.323995387805 0.245969389757 0.109689485131
-0.349261394019 0.260936315792 0.070198833389
-0.384531504076 0.223150222920 0.033385490542
-0.353105725066 0.287721780029 0.043735039069
-0.328509370239 0.221789366259 0.074442288943
-0.367324129277 0.244063112769 0.067911889406
-0.313697942154 0.255759415944 0.059562561033
-0.377892640895 0.237282937226 0.053552799480
-0.334485046797 0.319337564444 0.089500174618
-0.346161452568 0.255703369173 0.061953257269
-0.358577909770 0.170468621903 0.017695380019
-0.340983521565 0.176993410330 -0.059911392399
-0.368362100336 0.140809090549 -0.012145841339
-0.369885649134 0.160969166698 0.012495497866
-0.365026687767 0.140714943775 -0.023180491121
-0.392012031421 0.144800906057 -0.011807141293
-0.379904617651 0.167652852153 0.009994503477
-0.376600758166 0.188083036556 -0.012249340016
-0.375405239758 0.133699378971 0.040056033386
-0.385176529202 0.152560619632 0.002365795348
-0.362913375404 0.154797960475 -0.019087375406
-0.368501353271 0.173125693950 -0.024995375917
-0.396707536634 0.105363605151 -0.032001622430
-0.373103591856 0.160232806092 0.019238457477
-0.356888355887 0.171712686070 -0.039622607652
-0.353851514242 0.245528126599 -0.017068249933
-0.374147091949 0.248933569683 -0.016899328035
-0.352841918728 0.261008688021 -0.004745711713
-0.380956010136 0.235956737497 -0.015489477578
-0.377132443210 0.259142249971 0.022877926907
-0.376071368874 0.248895010817 0.011917379509
-0.379083016166 0.254537282640 -0.017985543662
-0.382575098889 0.250583489535 0.019912516554
-0.389158103473 0.217538090124 -0.012806367038
-0.356279254613 0.246592022987 0.027327111246
-0.369458188437 0.289277677012 -0.045960461652
-0.369990746931 0.276390407086 -0.012765296338
-0.355808622973 0.272871671762 0.006862265375
-0.368135221394 0.233033698893 0.033775689159
-0.327872501169 0.224835130490 0.052139707930
-0.363004238689 0.274949067459 -0.003338820903
-0.242889451081 0.166791438138 0.167521713886
-0.247130486509 0.156540520796 0.172634094988
-0.250920608668 0.165016469400 0.147996842218
-0.283307250392 0.191032967716 0.160364421964
-0.256914728136 0.164462547900 0.142512588014
-0.232779031215 0.148865094999 0.160637505991
-0.266419390411 0.153749003627 0.166951311414
-0.253170647807 0.173212360233 0.189096693412
-0.277916004880 0.203432564566 0.158265975713
-0.234844728250 0.135935099953 0.162355915955
-0.249588806668 0.143042456907 0.157853898308
-0.238811243527 0.133768613271 0.162734296599
-0.286746215941 0.212775055431 0.151559179060
-0.219310301143 0.138974946491 0.172839744023
-0.272985291474 0.185904384243 0.153902193067
-0.242955172890 0.190260219055 0.168586512292
-0.238768695134 0.247317667618 0.178466848458
-0.218498623646 0.222485573682 0.158878709115
-0.235090462000 0.234345642973 0.177575974466
-0.238326262857 0.269109597464 0.185250923346
-0.258722423119 0.243959741691 0.151539611480
-0.252921920553 0.236475390909 0.195620374274
-0.241862655924 0.291247264974 0.212090292252
-0.221560609069 0.289799606880 0.183925106423
-0.277293182740 0.286709035106 0.184988484416
-0.220338761105 0.270071530106 0.146171152086
-0.242026909306 0.280148448545 0.180039661487
-0.262830024812 0.300362179027 0.170827178795
-0.219105065734 0.248365365924 0.154282908745
-0.265241933292 0.225818388366 0.177174913965
-0.214332761584 0.248487944180 0.187730936726
-0.290884605862 0.160089701518 0.109268565854
-0.304974000869 0.157443768999 0.129554883418
-0.269811198437 0.158380597243 0.144419512036
-0.340846004277 0.146408338110 0.093116516674
-0.281323335143 0.135421496418 0.123768292676
-0.300194919708 0.145961733343 0.120384089490
-0.354186986920 0.174687038217 0.138645633545
-0.315285532308 0.151293289398 0.087496152291
-0.304532996864 0.126610565141 0.156052484776
-0.275024137106 0.159992099254 0.171145215549
-0.322146363082 0.130762826718 0.123705662036
-0.300131425995 0.160850947295 0.140559963216
-0.314452620602 0.156447709854 0.127628567137
-0.310741717068 0.141081273704 0.121713237954
-0.310324829626 0.141839412914 0.149124845738
-0.334797083136 0.204084139100 0.131143867584
-0.348064055985 0.221268876139 0.154345297936
-0.315978076769 0.159794107814 0.110915115984
-0.256377611349 0.217649376066 0.100837971004
-0.277857601437 0.238009287767 0.170983440634
-0.316094170457 0.276017085027 0.114116308469
-0.296851873705 0.229524689074 0.111252044645
-0.319335965227 0.225430562944 0.106710179817
-0.285532577515 0.256903771991 0.120612687592
-0.330756244448 0.279507348647 0.075831592062
-0.340906959005 0.257761532111 0.138895572116
-0.309181984482 0.257140831531 0.123543074680
-0.327050410583 0.276759488340 0.154094408180
-0.319796355519 0.298106411016 0.126624336395
-0.344176601011 0.239725936375 0.108919740023
-0.293938921659 0.223954279268 0.143280323187
-0.297526746502 0.262367269844 0.144287710503
-0.283242696682 0.246030737199 0.164188790546
-0.303172092329 0.236378356692 0.122829777843
-0.286391688744 0.248117646528 0.154626146441
-0.114580761641 0.118983614699 0.151274898528
-0.122567372032 0.154865044531 0.145352918107
-0.120332228163 0.163941021631 0.156708997180
-0.081334970957 0.092454272852 0.155492533754
-0.092052717197 0.198512157405 0.138170433604
-0.117994264407 0.173432314571 0.149344722626
-0.096355393806 0.188943109715 0.147294865013
-0.078267728536 0.189727287235 0.130351003742
-0.088074299936 0.154982666998 0.138142179564
-0.085227222374 0.115256068712 0.165808235500
-0.059695920655 0.192086859418 0.136751880279
-0.094168055155 0.168823339917 0.171496262770
-0.098522791576 0.174007517952 0.152404566354
-0.125475721498 0.170358683193 0.149525742158
-0.088914097294 0.169777061974 0.164035997917
-0.103024622607 0.191611587866 0.140837289211
-0.105726840591 0.217554030152 0.133833448957
-0.074557789930 0.249961427223 0.171753393770
-0.076314580150 0.270984683013 0.145090625464
-0.057565772447 0.239430306198 0.132464735043
-0.073098694269 0.259243640240 0.135286571608
-0.061942019436 0.275116321641 0.108374621778
-0.070796015031 0.252023396847 0.125569803031
-0.076716531115 0.262552588693 0.147703091770
-0.102286251970 0.235712242105 0.158181098961
-0.096341493289 0.231312685672 0.150279773517
-0.100234344398 0.263778737155 0.136796372673
-0.060180628521 0.240600502129 0.135238613593
-0.090357745648 0.275254870846 0.138952805688
-0.064913367161 0.299204722612 0.128659314476
-0.067005808149 0.248833511558 0.115176482391
-0.077764277592 0.284910717442 0.133148525586
-0.100917346887 0.211158583272 0.106548793499
-0.181394213447 0.150512595122 0.187571888664
-0.126947651089 0.233341259839 0.178746778017
-0.143760892400 0.157013945182 0.164320457517
-0.181934599534 0.130184097054 0.201806553447
-0.153651910245 0.170050218818 0.180788493216
-0.177138726734 0.199060073700 0.160893794951
-0.213918986199 0.156859179947 0.154751322998
-0.165262675390 0.158144198335 0.155379988852
-0.134792908298 0.210879874732 0.184638033905
-0.195130181277 0.174451198137 0.188272688049
-0.142756668746 0.174782186873 0.181930863224
-0.130831711365 0.191171039137 0.164168281876
-0.170686017785 0.143227418645 0.147970672894
-0.132029647219 0.175044272860 0.141656796328
-0.173133945518 0.212398400288 0.164135492477
-0.147958466692 0.157132596403 0.155175156092
-0.126971361202 0.200188612974 0.178742838898
-0.190230949665 0.244669316447 0.165400885663
-0.167880172202 0.228323906703 0.200573636408
-0.174652880098 0.270017181841 0.192165160926
-0.158023465083 0.254881656102 0.191761861979
-0.164412030025 0.222261139729 0.204556919676
-0.180990571974 0.280506232502 0.175343064430
-0.185942008665 0.276728678867 0.171412327477
-0.170484140490 0.302206663063 0.193769132301
-0.126176523548 0.254442813841 0.169387777523
-0.170150332126 0.286728142939 0.161397864060
-0.177182494475 0.270182139719 0.175339319810
-0.180706546079 0.240537511078 0.187995961243
-0.181431189249 0.307149448673 0.138706069276
-0.163685363513 0.239592620007 0.168812539707
-0.043318621982 0.298960066947 0.061882209171
-0.015869610145 0.264816786641 0.059893644191
-0.036833596814 0.261080141743 0.057968754697
-0.010599373188 0.291181123148 0.081007756599
-0.010832303097 0.292969006929 0.074212825241
-0.018042527614 0.281481434885 0.055329909442
-0.021957888855 0.277685405983 0.056640571147
-0.031044208560 0.240756110222 0.086228069925
-0.028726535581 0.281906443983 0.090965830511
-0.052551498408 0.280499451206 0.085897216963
-0.076117573304 0.316799552303 0.063170866594
-0.076480603668 0.299909944298 0.107467363725
-0.063866055731 0.269292618462 0.088395594734
-0.034125236139 0.295845120747 0.094066598085
-0.030622442865 0.295609358055 0.100804908881
-0.045428758013 0.300112303325 0.073291191338
-0.052949903648 0.285917019965 0.088047345404
-0.029708409415 0.225950060923 0.079537681168
-0.043668438111 0.298105931011 0.068956606633
-0.037815326201 0.156988538327 0.123962753258
-0.068991608345 0.202735956465 0.101393380292
-0.063214502688 0.180208980149 0.095382515210
-0.088959179682 0.137518438913 0.132029498277
-0.095683034303 0.206666427658 0.136529150294
-0.091158953893 0.166697241575 0.103146182530
-0.071793747950 0.164650786269 0.126538467918
-0.041348434983 0.211264560118 0.108396658325
-0.050368885591 0.204853047364 0.097062305366
-0.040079784526 0.196756269740 0.124675791375
-0.072177819261 0.177264535293 0.118687110006
-0.040740975005 0.219267517485 0.085894005258
-0.043464016076 0.243189191091 0.097539249980
-0.062423539045 0.219975744707 0.106542121995
-0.070506231738 0.179875104494 0.098881099031
-0.055197365220 0.212811722579 0.129619452385
-0.005568350978 0.217563462055 0.101712844280
0.002801988742 0.265994680140 0.016762326315
-0.024227628488 0.268866455211 0.058708196431
-0.022135741930 0.272480905580 0.027051998309
-0.016374172158 0.278999084841 0.013816090360
-0.021200788928 0.273743060291 0.050111956150
-0.025956803223 0.272176915716 0.011420750555
-0.009725159857 0.286423032118 0.020760945958
0.007587176829 0.271893522802 0.025063832618
0.033292179673 0.313480443192 0.060696086181
0.012497746691 0.298418210387 0.001695083387
-0.031992098910 0.251576886547 -0.010953327687
0.013847901187 0.308097406450 0.007554624388
-0.041675065464 0.221632408602 0.068595840656
0.011425288400 0.197082595577 0.023932866147
-0.017037256148 0.227457843605 0.050397186632
-0.027246219797 0.169036990440 0.089652728283
-0.005103757131 0.222377514401 0.068918653010
-0.032518305091 0.180211619116 0.061853290064
-0.042264963080 0.174518806642 0.077866873992
-0.012982810117 0.206855001377 0.026874793198
-0.035319807258 0.229323124873 0.024018547123
0.006074145375 0.225964829059 0.051832570241
-0.026544785303 0.223192998278 0.097214453729
-0.033582240119 0.216869862877 0.023904500198
0.005327627621 0.182424472408 0.048564930984
-0.024296076474 0.136565833856 0.023124447211
-0.025909725561 0.161612012953 0.071319019557
-0.090816477341 0.142550373784 0.446549148767
-0.063492608651 0.151274121318 0.453240310079
-0.058615597342 0.122480478837 0.454435730129
-0.065921820382 0.204254383241 0.472543153153
-0.073990615628 0.102891228292 0.471594771292
-0.052774222828 0.086079595723 0.472614393586
-0.125158535214 0.148191994723 0.485898757078
-0.036357117894 0.158234024732 0.454914507427
-0.070448826912 0.094279197500 0.488689623888
-0.069621787314 0.158278316760 0.494980382166
-0.095187951780 0.152220609045 0.458153730134
-0.062870833082 0.108656920199 0.493987909730
-0.081171711841 0.128593033220 0.472333508573
-0.017129799037 0.139490907500 0.482149838958
-0.032366279838 0.115520949494 0.464853341458
-0.043449748619 0.095293861120 0.494654438228
-0.086317199223 0.112502810122 0.480484014032
-0.038213715647 0.054621271762 0.473205881921
-0.060417363409 0.036001256542 0.489283327884
-0.063721242411 0.057977512052 0.482357487932
-0.074641722719 0.052132471378 0.464454134751
-0.058479769851 0.040518797365 0.487733580753
-0.096350191326 0.067491512237 0.478360055402
-0.072275148528 0.049656185201 0.470412628147
-0.050972504906 0.045349763627 0.449609629896
-0.085552292878 0.096423453142 0.478481741613
-0.064470192628 0.068007861345 0.490834004876
-0.057895926923 0.043602610039 0.495652900234
-0.003198972571 0.055470451544 0.510513705365
