-0.771479958028 -0.347780502579 0.258558353683
-0.793986964014 -0.332805480168 0.201072047176
-0.767506966963 -0.405390521496 0.175695385275
-0.789924173579 -0.286899929587 0.209974943907
-0.791607526910 -0.372000567233 0.182905724750
-0.713413395321 -0.368157439197 0.153838258467
-0.786628183841 -0.223375112935 0.207350908690
-0.788726011949 -0.338124069142 0.162112106737
-0.744716829902 -0.350842384782 0.279923033853
-0.762951434983 -0.293503706908 0.215056912255
-0.775276456705 -0.239589113324 0.327695619625
-0.795387229063 -0.293541098534 0.282645245432
-0.782421297902 -0.360289929240 0.314339736361
-0.837116625428 -0.352447454874 0.291819569342
-0.802998949237 -0.316589856064 0.256376418956
-0.695267107437 -0.278787565555 0.310411698666
-0.808235110023 -0.247750761986 0.292707727570
-0.668700241254 -0.363381656760 0.289836351191
-0.796247916741 -0.341527548720 0.271440237777
-0.754877531816 -0.366837392338 0.207620337565
-0.788083237499 -0.360413684570 0.326371500954
-0.760686528134 -0.345082272647 0.307461631704
-0.749088903781 -0.290381149237 0.212739247505
-0.787042186553 -0.414977122650 0.264410114023
-0.813262778986 -0.292736931580 0.342500805159
-0.812619579931 -0.321003791385 0.310027816480
-0.749877397773 -0.325450621320 0.303491368693
-0.727288130465 -0.326146128026 0.261685597949
-0.792875359890 -0.326501732830 0.237733324405
-0.754558715085 -0.334744924774 0.256048317348
-0.764625328312 -0.399339354004 0.235365129529
-0.791818151581 -0.312024008123 0.217290623921
-0.765058663036 -0.246735310782 0.347520546700
-0.771792591870 -0.209622471618 0.413434956575
-0.730037091514 -0.216913576409 0.368422104860
-0.744656282249 -0.297179239615 0.379897133457
-0.773684885372 -0.175442624259 0.322409979039
-0.814683256570 -0.186718659871 0.392939721464
-0.729086746795 -0.226104928930 0.322093881380
-0.760015092393 -0.177340332450 0.377136522529
-0.815983534699 -0.186347815979 0.366223471624
-0.790284861129 -0.208698949606 0.357987538377
-0.716782706438 -0.190541217581 0.422574376876
-0.800451210703 -0.238873325747 0.398288741255
-0.777287493361 -0.106130179824 0.424183226236
-0.718496461185 -0.177675247024 0.372148557478
-0.747856626207 -0.190072602538 0.367634749473
-0.734144971990 -0.156414429640 0.357396821574
-0.753971224027 -0.162640074470 0.308430975416
-0.708809609986 -0.203951110614 0.406603880163
-0.771112160502 -0.161113136034 0.387345622522
-0.715359599487 -0.168596678402 0.340785540644
-0.742810772685 -0.275494837482 0.349506758319
-0.791837275549 -0.164386624120 0.314620335867
-0.753489293025 -0.232862725243 0.339847358444
-0.763597977849 -0.231899503949 0.446901385586
-0.715317030791 -0.163035990982 0.385309912433
-0.731276937478 -0.255805790765 0.372163669682
-0.744702010780 -0.296243605543 0.453771458737
-0.720234263452 -0.190175702027 0.473924382495
-0.786833400562 -0.228284283758 0.428605698390
-0.827326038006 -0.231532543957 0.408330423640
-0.765935501477 -0.159029808419 0.477471401308
-0.789763496771 -0.189681938050 0.423715842513
-0.771200650596 -0.215475978226 0.475675574103
-0.846584585414 -0.196027937499 0.421831663240
-0.762773326575 -0.194427140511 0.423184609194
-0.754944241512 -0.188795286799 0.485471606400
-0.791328155021 -0.198585429403 0.461617571045
-0.801771650282 -0.196347764649 0.371307294707
-0.824899352088 -0.167312447926 0.490545612162
-0.763732281497 -0.275303521817 0.478006221723
-0.783065605042 -0.267468821310 0.413458762340
-0.804811439457 -0.161985824089 0.438944547747
-0.754524464282 -0.293209758721 0.412140658208
-0.844960716355 -0.190908848397 0.418752913402
-0.782213911376 -0.149298512258 0.519797225716
-0.718253692212 -0.216939064280 0.391802095972
-0.835338260706 -0.218954133901 0.438373860917
-0.775481057050 -0.215018243379 0.429166718107
-0.758819645225 -0.156942914193 0.437611580623
-0.769530313172 -0.204548992491 0.474628359276
-0.800279076215 -0.188692926365 0.508111251878
-0.780251267769 -0.133422303906 0.392680703934
-0.734532244949 -0.155823546539 0.477025310156
-0.800811735917 -0.347273072152 0.312624559660
-0.857929531110 -0.254777250448 0.365102081260
-0.755738090962 -0.304974657325 0.338452691222
-0.824298824441 -0.313362935260 0.375208925560
-0.693761551655 -0.298542122586 0.415886494231
-0.719513875081 -0.263791742911 0.356812330420
-0.696668760630 -0.323340498817 0.434751828697
-0.748206652221 -0.350910044662 0.390205178823
-0.728877840857 -0.384387675041 0.451927030935
-0.769331938543 -0.320786356688 0.358189985091
-0.759446321941 -0.317264466056 0.341284635436
-0.705722595557 -0.310040726999 0.355941878825
-0.707206813093 -0.318756292263 0.329801331196
-0.757938023959 -0.345755063184 0.279908333407
-0.777177167947 -0.344824584630 0.381587721555
-0.758726118219 -0.356572416970 0.345553818441
-0.697826579036 -0.206061044972 0.498737521846
-0.787359284357 -0.296152217207 0.308632878778
-0.742335433467 -0.284829730816 0.398526273911
-0.742881203195 -0.250039501242 0.396136671497
-0.770493894232 -0.317019552489 0.426092155758
-0.783320822831 -0.236869518381 0.403160418988
-0.730436445839 -0.318326959837 0.401108773212
-0.748902166400 -0.360402117840 0.355377325113
-0.801767931871 -0.295608031512 0.481156575748
-0.763568369501 -0.297786313360 0.480508930191
-0.787098953567 -0.292939422454 0.549081216579
-0.768042118536 -0.397513559878 0.447803443569
-0.793079722077 -0.257379293818 0.489979365410
-0.746338719924 -0.405028678734 0.390948509592
-0.750945810673 -0.272124804175 0.498386577750
-0.733489734374 -0.329334046871 0.410400893932
-0.768742889032 -0.245215823572 0.509787470063
-0.769866380614 -0.297435588023 0.476092476908
-0.780596278296 -0.309045868721 0.564105050706
-0.765577997948 -0.323443539793 0.485358630814
-0.701145799391 -0.381617170043 0.512443652541
-0.755653085237 -0.342591586958 0.482495225600
-0.830571625112 -0.256581556786 0.455385171479
-0.771700389208 -0.304762391777 0.425496254991
-0.743116787723 -0.376790979809 0.434028236567
-0.732811558156 -0.238768648846 0.468335562406
-0.770660460706 -0.341596617796 0.433999837141
-0.751112892688 -0.340518454487 0.432954631029
-0.739940889249 -0.302293219385 0.447883942710
-0.753665326328 -0.339288104100 0.479410003470
-0.764322147395 -0.343467731195 0.528445254483
-0.795995974263 -0.187208693616 0.588023777151
-0.778423097577 -0.197198533396 0.563969448921
-0.840814990633 -0.187923454960 0.470782264138
-0.818424825430 -0.151775835739 0.572795274547
-0.755328722063 -0.169000260668 0.557049631111
-0.817738825524 -0.245510930915 0.468627220947
-0.775117827625 -0.209167013793 0.573652886218
-0.780764424397 -0.178123529319 0.576735569030
-0.801936630126 -0.221703707510 0.616323967848
-0.781988235583 -0.204907980711 0.498695029928
-0.772278604811 -0.141769364052 0.568030282938
-0.815014944204 -0.151982419496 0.490991756091
-0.731590280190 -0.280624529873 0.544683573020
-0.753538217443 -0.221932113006 0.534549855656
-0.750000957065 -0.195919573348 0.588361952682
-0.723260650073 -0.157627242962 0.517630103371
-0.810800918530 -0.207641949504 0.520455820041
-0.811231500520 -0.147518042310 0.598301761521
-0.768565936221 -0.156123651376 0.513559615399
-0.779109760976 -0.205567479348 0.517032018546
-0.778511650225 -0.220897145053 0.541551039515
-0.740604520522 -0.154877643541 0.532223642348
-0.813876067007 -0.139316901695 0.591111131867
-0.715246066130 -0.168038098292 0.531784669953
-0.758349470421 -0.201393980836 0.606630407270
-0.751494102568 -0.227374670790 0.601309439284
-0.749618253888 -0.186416429913 0.516320579080
-0.773306191797 -0.320150467406 0.499214924604
-0.773811005451 -0.240499693851 0.588554306643
-0.805019351196 -0.198946643784 0.630828804291
-0.770781801258 -0.265780011094 0.637968085921
-0.728390014734 -0.221317182665 0.581290056352
-0.808065246200 -0.195886786287 0.610776712869
-0.807642211460 -0.216460238623 0.583320584274
-0.732854921049 -0.226781273313 0.624017785716
-0.804188524066 -0.190119531001 0.594790652891
-0.771207568149 -0.177703475598 0.612579299208
-0.768802703282 -0.207998092957 0.643308202043
-0.795971605127 -0.210542902882 0.658272013998
-0.748245937207 -0.279701963374 0.586363929578
-0.764923921684 -0.147311566016 0.564310743121
-0.757451773884 -0.220055291769 0.647102147392
-0.738063854798 -0.210935073559 0.667762115553
-0.764818683798 -0.208842198364 0.594839452069
-0.754777165174 -0.176606633903 0.625376525095
-0.761855619896 -0.163182397739 0.730168570640
-0.786430734305 -0.191778772801 0.616971435036
-0.718244474174 -0.179888939458 0.669704541949
-0.703931733348 -0.206471093334 0.568935368926
-0.759202065755 -0.276683118168 0.641969056273
-0.800246661961 -0.173720838952 0.660062484044
-0.768879758934 -0.195236286473 0.702579733892
-0.741113566982 -0.237437355852 0.666710563681
-0.818741226261 -0.191233194116 0.589654828432
-0.767218968588 -0.185081722864 0.640521658853
-0.740985719502 -0.178446420725 0.585744754095
-0.868511535058 -0.180425019149 0.617457228497
-0.762943077811 -0.269415429518 0.582889649542
-0.734466861089 -0.286980949769 0.603892293614
-0.755665471724 -0.258449250865 0.598936843235
-0.713629304957 -0.310031246642 0.570315698838
-0.705875088094 -0.341838258085 0.624749349304
-0.761707859059 -0.299941815201 0.558833582126
-0.752191976303 -0.269030574781 0.507677659797
-0.738871173853 -0.318985350791 0.571227822480
-0.704355768414 -0.295398416731 0.580186859395
-0.751610968976 -0.343275161752 0.572874945557
-0.761266066592 -0.288409144608 0.579094723270
-0.755675378942 -0.296686115518 0.607842217873
-0.806802702384 -0.316231889763 0.567038481718
-0.729894327315 -0.334712497950 0.555830771359
-0.738867655720 -0.361254392412 0.567100244070
-0.717656571776 -0.265246354155 0.518263918344
-0.738285301250 -0.309267354149 0.523365464718
-0.790511583777 -0.317301020016 0.579395310176
-0.685953405398 -0.279925356990 0.597534207544
-0.784210710047 -0.409792362887 0.477197848217
-0.807498778534 -0.408946182179 0.522739269497
-0.770312361688 -0.334472711715 0.466582809466
-0.760183920059 -0.316972132886 0.545929817913
-0.789994754785 -0.288445117678 0.542590942546
-0.801315490293 -0.367623921935 0.455949505951
-0.768784833448 -0.315539864898 0.511449523388
-0.731782285348 -0.294860065022 0.532731672958
-0.724257691805 -0.272028229271 0.627215729048
-0.839887216855 -0.315503454027 0.674237703152
-0.844668643665 -0.278395045203 0.648581848765
-0.726860028610 -0.390909560778 0.597894934870
-0.795497436133 -0.352423140819 0.674829153796
-0.761550012860 -0.329591885430 0.634766198585
-0.708918570527 -0.287982480093 0.583653377915
-0.733122325208 -0.354035836320 0.564299739423
-0.808861398185 -0.316744342762 0.576718530076
-0.773591088651 -0.319404047957 0.721949378792
-0.743990824706 -0.310436627555 0.654130733072
-0.775781564175 -0.319842791612 0.592566540276
-0.786438594397 -0.271905354253 0.622983466808
-0.797399490987 -0.354787977197 0.673850054473
-0.722070350153 -0.323560616982 0.620590353966
-0.811496530232 -0.365125200004 0.593650588094
-0.731304895862 -0.331634442967 0.687903502428
-0.811562469629 -0.361270861336 0.647178828729
-0.790216562038 -0.247614259864 0.659997449572
-0.767253016728 -0.319153717541 0.693335142112
-0.768625519916 -0.328557236915 0.684708180843
-0.775651930887 -0.319116381461 0.658589430766
-0.767065852133 -0.380825664317 0.651243264337
-0.752034771544 -0.279151297973 0.698824516775
-0.823419049229 -0.347744296045 0.634102279202
-0.764762266454 -0.302698389067 0.657190864568
-0.772985915238 -0.296248029795 0.647492491741
-0.345913714327 0.113157685994 0.453383450271
-0.380309627768 0.156315667440 0.456931807359
-0.436532131563 0.139148026575 0.440130688193
-0.330144444806 0.071342668860 0.490290668866
-0.397595996931 0.110848838452 0.505810907006
-0.387953018549 0.126256561948 0.454671975871
-0.407871934259 0.157026501094 0.446795155818
-0.450207721847 0.073190841236 0.490572258073
-0.389205487834 0.135738963521 0.443508797970
-0.384043466744 0.094723509500 0.532449976472
-0.477234851107 0.102057713645 0.468053465646
-0.327386683683 0.093857687455 0.460701199826
-0.401660640716 0.084006854803 0.453831225270
-0.377802042842 0.164908928504 0.507120037804
-0.323223149367 0.132627843516 0.566835541765
-0.379452564027 0.068064790318 0.469789874633
-0.385607097960 0.076069309130 0.478311585096
-0.384118543735 0.062387896432 0.467829005310
-0.377511491434 0.064627694243 0.459440158834
-0.401800320729 0.044941472288 0.437540300165
-0.381875071751 0.002054365233 0.479236433552
-0.413854102512 0.027180401651 0.463235501442
-0.453142631077 0.051599059456 0.438378958380
-0.404749931932 0.067238542545 0.382592558366
-0.423836341487 0.043483331612 0.515721771829
-0.379614074473 0.014125965828 0.377661544324
-0.411646511110 0.091945323079 0.456219673493
-0.372789395256 0.106046024939 0.458886168855
-0.405007475517 0.095735393433 0.471136757206
-0.434978887278 0.072539074540 0.501180969429
-0.382953223572 0.070295994513 0.509103687965
-0.500555999576 0.106723413573 0.495918141298
-0.474622028730 0.145727509797 0.486839318419
-0.530655984505 0.101101956231 0.501251662506
-0.515353845110 0.178402474393 0.446601872070
-0.412091255730 0.133440954133 0.467353944031
-0.482332717017 0.114144176663 0.417374463687
-0.487876219346 0.185450713423 0.488737374572
-0.454470449056 0.169859854281 0.476514182822
-0.467377529604 0.105517420018 0.447329465461
-0.482149028903 0.131059953281 0.468630727564
-0.529806578686 0.162516451581 0.492862544101
-0.430893111060 0.121916533698 0.463936929215
-0.465683947465 0.122209695787 0.475287965801
-0.517199719559 0.105854411434 0.463722800333
-0.441484353038 0.061190279119 0.473279099462
-0.484231628027 0.103361909325 0.476852167039
-0.513176476885 0.028525499530 0.438133171597
-0.511835857770 0.130650329396 0.480113613967
-0.481925070594 0.029225484936 0.412557966999
-0.487065389206 0.026960630484 0.505430020573
-0.449278043644 0.069279616168 0.520647769357
-0.467386082008 0.014372312058 0.414702242773
-0.469398113253 0.091784189742 0.442411787991
-0.458785186997 0.062574540130 0.459292057114
-0.444710237508 0.037297740799 0.451952437079
-0.468618525394 0.058509733830 0.503388080471
-0.419469939523 0.078106554332 0.456373438152
-0.457759303077 0.076271818502 0.515680557242
-0.502839917647 0.102305848351 0.477988925758
-0.534317687218 0.082080298994 0.501471846558
-0.367930792416 -0.037862026353 0.525658534164
-0.460822351169 -0.117767399947 0.469820833357
-0.425519523874 -0.031373727657 0.470292605594
-0.393611469643 -0.026002043354 0.487338038478
-0.418182477815 -0.007962180860 0.498553132069
-0.398172763518 -0.032967233758 0.458731751518
-0.385225096611 -0.038823150366 0.481513191747
-0.399148955725 0.008511306167 0.467264545911
-0.477047527971 0.029637200206 0.495429380508
-0.461745167334 0.038300786970 0.456549597073
-0.415446125998 -0.105621552325 0.484928694364
-0.418693306702 -0.108783429747 0.511654862093
-0.450348396226 -0.042828756265 0.502684287361
-0.465516369993 -0.048488476660 0.406361153542
-0.443505059935 -0.033780125604 0.450446477588
-0.434859877543 -0.148790738351 0.490486725448
-0.445934863141 -0.065614467105 0.506270611074
-0.431435258983 -0.136253427368 0.493737714519
-0.469240792437 -0.069782415689 0.420856285437
-0.358369070056 -0.092295349215 0.422401507773
-0.400698024925 -0.109457127513 0.554043396226
-0.390014749089 -0.074038232996 0.510618986461
-0.390349056090 -0.073174986983 0.495726048788
-0.465919119402 -0.124919380845 0.494218784906
-0.451329748800 -0.074673930902 0.490592024663
-0.393718720894 -0.084420679941 0.468638767416
-0.416618156727 -0.104429901515 0.487207854662
-0.433290987580 -0.160065101805 0.450509787431
-0.441554901320 -0.078154154966 0.479610558788
-0.459571386526 -0.053349178253 0.464130667774
-0.405732932132 -0.058313940872 0.440009681237
-0.367967884158 -0.102955428400 0.455453317128
-0.500081602700 0.002684503803 0.522628759626
-0.516897078910 0.009629836236 0.495337015939
-0.487052147750 -0.001772715540 0.469223921326
-0.524332950172 -0.060909157387 0.444132839177
-0.474617889422 -0.012417947547 0.483371658204
-0.478380613490 0.041656367974 0.476599753421
-0.553467389287 -0.055572590756 0.469290785750
-0.497773793149 -0.002108482896 0.478247909537
-0.487827615048 -0.059608100358 0.496576790105
-0.471781540217 0.009211722051 0.463725160833
-0.459450758808 -0.036066293723 0.477135672599
-0.537514475968 -0.038967222415 0.554214930200
-0.515860143758 0.003454333193 0.467114243027
-0.564621429548 -0.054990063421 0.482961915436
-0.498122962366 -0.120918026655 0.517781959729
-0.537717016007 -0.064241967913 0.443271553430
-0.551491129815 -0.160774032990 0.497251666014
-0.467183256810 -0.066449676343 0.479018460585
-0.453828483407 -0.098572477414 0.511530132820
-0.490383971164 -0.069169899149 0.456389288125
-0.467990626858 -0.105814810129 0.484385856485
-0.432230059200 -0.065669943025 0.451488862281
-0.465518236327 -0.030451960503 0.490963487378
-0.507938063108 -0.090858908860 0.462775616854
-0.535971014453 -0.117690326706 0.470357447569
-0.452353023588 -0.125349482944 0.455808066525
-0.543433640822 -0.115641338251 0.495805014754
-0.503419085185 -0.157544777970 0.469570784352
-0.482466096577 -0.148070306343 0.558916678172
-0.485152584668 -0.114944213382 0.509292740695
-0.526966428277 -0.131238501023 0.464971652410
-0.396786680232 0.279106614740 0.526099130099
-0.385176325572 0.267795350641 0.444854180308
-0.366217266277 0.288643266523 0.422314462220
-0.370663612493 0.274174603852 0.470560506324
-0.412182421634 0.307219445710 0.484712609140
-0.345208452751 0.228789762106 0.495432723647
-0.434195029890 0.309365016800 0.502474610956
-0.391395735409 0.251855876328 0.440866510443
-0.417982873621 0.307302770737 0.444127694086
-0.410084250953 0.293869052476 0.494680657223
-0.380181660426 0.266020641876 0.455698485191
-0.441845473546 0.341375279013 0.515331371225
-0.418118867358 0.277162558897 0.465888997740
-0.439530505467 0.304465570966 0.464270733383
-0.310750264933 0.307958390158 0.541932271623
-0.311660520379 0.207147808897 0.429305799171
-0.400036607625 0.276248800632 0.503399792906
-0.413123189725 0.235820946141 0.527766979030
-0.388916333987 0.276208403713 0.491606151557
-0.355645750243 0.190518622514 0.502837313587
-0.445165248402 0.209273357659 0.502847062985
-0.434766982335 0.186228360032 0.443333225783
-0.394469616122 0.221941175173 0.473004286021
-0.394315412579 0.167875490659 0.498800120104
-0.412449277712 0.214427600266 0.478433033724
-0.430134128038 0.205131323716 0.511867102902
-0.398649388290 0.160552986929 0.477288121558
-0.331469286996 0.219528553562 0.458419050015
-0.372315480815 0.166717451996 0.437696917164
-0.374745508669 0.176206265611 0.500539616592
-0.411002480529 0.267146886658 0.489726319172
-0.333842886663 0.184458785546 0.390620474064
-0.369147536971 0.233815308874 0.520222903636
-0.506909298401 0.318037132514 0.488764679264
-0.436289922454 0.245806241613 0.431858024061
-0.391383759320 0.255724201723 0.463416359906
-0.461953074145 0.314097444247 0.473350361598
-0.477279460313 0.227441575459 0.501111186073
-0.455158731613 0.289413899553 0.442130056363
-0.446331448214 0.271394185384 0.527520095055
-0.431328019587 0.318423649896 0.508331313586
-0.459752802927 0.296860072341 0.469409883616
-0.460164625024 0.282993793837 0.465293805516
-0.405006866553 0.302856715524 0.457392590088
-0.466213231379 0.276644262832 0.403962926063
-0.552476663300 0.317451886506 0.529553116182
-0.485590317357 0.268302504916 0.506272871861
-0.476271932079 0.260717123221 0.487498347193
-0.468079477148 0.296201351409 0.542439535516
-0.477121590787 0.269904133317 0.481446304127
-0.517689375221 0.238440924788 0.488405745097
-0.453873120444 0.199538453719 0.540833018989
-0.480850133394 0.225642602402 0.500708617595
-0.436669265388 0.159539994449 0.486282628010
-0.455380654924 0.217014960731 0.496653289627
-0.502981862321 0.203278750978 0.547326043386
-0.480476880187 0.185606816931 0.518061062527
-0.465663839806 0.207290764388 0.432510646307
-0.479237656709 0.241790526394 0.539908919590
-0.524493907693 0.218624454144 0.499318450496
-0.423302183830 0.196114875124 0.414911526238
-0.409567101676 0.269666015086 0.535738784592
-0.444157443896 0.227950522127 0.467045292969
-0.453931885839 0.219400815236 0.470811319753
-0.519384035038 0.190127433988 0.510126288886
-0.475716468596 0.147291041272 0.528177490025
-0.386786317928 0.088676172379 0.511885913372
-0.277617701073 0.027063677259 0.421422730330
-0.287844548182 -0.003265642824 0.481926589091
-0.204482906463 0.006050764063 0.467018153264
-0.216856999320 -0.043511580165 0.507084342692
-0.278734452657 -0.009211809083 0.517237367449
-0.272846931003 -0.036987811955 0.486335060733
-0.200598825487 0.018912524588 0.503626237127
-0.248911922071 -0.001850444912 0.511537861315
-0.194568544868 -0.083422109507 0.478770479301
-0.224293754733 -0.047791976184 0.459879591221
-0.216435423055 -0.061631790845 0.427658757946
-0.221228528839 -0.131556422597 0.503674005361
-0.204083890946 -0.024804189396 0.462178899321
-0.203980063211 -0.032660637899 0.433613893458
-0.250966008409 -0.072695473711 0.435601117890
-0.296645346792 -0.122368240740 0.509247505079
-0.190292522809 -0.182591100766 0.447573141852
-0.208174403150 -0.069219419416 0.471822883537
-0.173745641039 -0.180195560003 0.536897074174
-0.256911080687 -0.095458108186 0.509049297543
-0.237618731762 -0.088981706891 0.458674461591
-0.193481326611 -0.118712556669 0.437837622150
-0.175489071076 -0.044324478888 0.502658868663
-0.205445298002 -0.097533877537 0.461057538624
-0.218017391138 -0.106421075978 0.508364024170
-0.267225621597 -0.077448810630 0.497258649494
-0.274352289187 -0.126074255468 0.448048724558
-0.256258131044 -0.083421742427 0.488891745110
-0.270521248785 -0.084104292487 0.472621526390
-0.252248623557 -0.036856032602 0.507569187327
-0.197826748671 -0.037048776897 0.508419947944
-0.301913956218 -0.037938115284 0.456863711051
-0.254673341456 0.001729607959 0.496573586650
-0.329972635830 -0.025459383536 0.509033099279
-0.307349881972 -0.024665679915 0.525424116912
-0.311097330967 0.039304869640 0.428287665946
-0.366760441244 0.028832091277 0.439639854146
-0.329992094799 -0.052021582425 0.473257229913
-0.344732915463 0.008324991557 0.515895195765
-0.334736945130 -0.008456583238 0.476865226940
-0.356330526366 0.014123328593 0.450801729035
-0.280213406569 0.021389781735 0.489609490376
-0.318675163727 0.004467377623 0.500848593836
-0.272964808462 -0.027015648985 0.477257959045
-0.351315735097 0.001378799734 0.482707598478
-0.349143834301 -0.004300393703 0.503286234054
-0.309151101785 0.015867285011 0.452579607759
-0.332185466907 -0.113787136484 0.500982161810
-0.240408324857 -0.120957026129 0.517615891234
-0.277163958548 -0.134804051030 0.462602463593
-0.305146568697 -0.108698798746 0.540307129683
-0.308917563373 -0.104992071572 0.494547798426
-0.306611465346 -0.150985991580 0.483823743459
-0.389536207002 -0.070312825536 0.454972039469
-0.269817866073 -0.093904848034 0.467748495248
-0.280754122383 -0.031316700552 0.495233446442
-0.321900467881 -0.073920834692 0.491284492353
-0.342489423038 -0.029111512058 0.493108667410
-0.284932660971 -0.079855801557 0.444974230710
-0.323957997520 -0.155292338713 0.492063625765
-0.296168495116 -0.099919224939 0.442912285706
-0.325809724826 -0.091888269117 0.427086819328
-0.287836207000 -0.127590837138 0.512402608690
-0.286966145041 0.193549819409 0.523072297014
-0.211247286302 0.106421841370 0.451147258041
-0.233019235257 0.114436231593 0.489498266667
-0.304590845259 0.194637934788 0.453848441406
-0.242013535685 0.123802683195 0.462010698049
-0.224418145685 0.124186853623 0.481324729020
-0.214702168321 0.162752259572 0.479249298795
-0.221312757674 0.114086901568 0.528335369234
-0.241230616498 0.129789900017 0.477988899470
-0.195698295916 0.093311193105 0.455028684464
-0.304732673339 0.130078937300 0.432156928366
-0.279555497624 0.122893974739 0.459753794300
-0.221450560623 0.144901520714 0.491033477196
-0.190969725895 0.091938078777 0.533317329932
-0.231456483365 0.192935315885 0.511578196897
-0.285645420155 0.105496113423 0.478238972307
-0.275656359878 0.060307911745 0.519966171663
-0.298291414042 0.051668430656 0.480484173893
-0.202617224121 0.049945352172 0.473181978019
-0.166837091346 0.022479837296 0.472492581714
-0.175123541689 0.102524748730 0.484625405065
-0.236706445089 0.063458674176 0.479860810246
-0.210592311018 -0.019145704111 0.497843633285
-0.224731854532 0.020078713864 0.473571541494
-0.232357142067 0.071883921028 0.446493412406
-0.284037559590 0.108280843808 0.503698555048
-0.168991734577 0.069356495541 0.464694611127
-0.200237649801 0.073452393467 0.475148892028
-0.265670021460 0.070851654804 0.487885693526
-0.199643099842 0.075949860967 0.448584556866
-0.302796003523 0.073965127127 0.476477576692
-0.271734981550 0.038193489608 0.499128815272
-0.350993648259 0.101568121967 0.506116468482
-0.267663843592 0.148312644153 0.464706750585
-0.321472957715 0.074051196123 0.449344214825
-0.346604067122 0.140403794745 0.444655468752
-0.347011419709 0.127972551588 0.502339868957
-0.256860266634 0.171702838977 0.503982009297
-0.331046197490 0.135799258922 0.450349660022
-0.282042048258 0.086944317668 0.442346482888
-0.277688859618 0.120855752776 0.461575532692
-0.398332622664 0.070211454647 0.523313347021
-0.372810360804 0.122147230040 0.492789612846
-0.347523984652 0.107302898386 0.494662949774
-0.264763395195 0.083913822194 0.498955647643
-0.311166443720 0.108593342246 0.514433848407
-0.324267293341 0.186628904808 0.510068678180
-0.337919290483 0.141217556394 0.432398631174
-0.319193201361 -0.009132624959 0.534292254959
-0.334166206474 -0.009624816990 0.522196147512
-0.289020131526 0.065232809378 0.553716526195
-0.260116915974 0.076147920715 0.478522741957
-0.256874621232 0.090141378219 0.523267622422
-0.339817530021 -0.009599091080 0.487764818649
-0.378439577989 0.099578449710 0.488021252442
-0.346623446562 0.038442830547 0.499473653485
-0.322041986716 0.006596757258 0.509356638956
-0.232587226857 0.064570983676 0.474493281351
-0.314967568248 0.046305007558 0.506310690638
-0.322577721963 0.034548198008 0.473735233724
-0.325776307650 0.046532838959 0.431663741173
-0.326584895240 0.077144833474 0.439991578716
-0.238121033650 0.116751700637 0.484505305420
-0.195972703042 0.304155695561 0.526672788046
-0.270725270432 0.295538475686 0.447637421671
-0.282073138485 0.329059351379 0.430632796339
-0.181978549309 0.246181699765 0.502292851320
-0.203194642104 0.292610021322 0.464548543860
-0.219264796744 0.314176579102 0.518732124085
-0.257569980698 0.314871135089 0.480612862845
-0.143508719968 0.251666101817 0.482233965763
-0.238960255214 0.232175663715 0.474516990573
-0.197600071625 0.327587153278 0.483222551751
-0.162098636339 0.312801667932 0.484806721539
-0.193992173313 0.279097232337 0.434558222676
-0.203777764272 0.295551680166 0.478501498397
-0.255848052602 0.289296416835 0.508203018325
-0.202444781731 0.349414223030 0.451825834938
-0.251382927820 0.311919758535 0.444772599728
-0.226935442540 0.237086458288 0.487540422206
-0.179546079117 0.183201162163 0.513541966359
-0.203168349883 0.259141101831 0.489456238688
-0.275544152690 0.212310763972 0.511964510709
-0.268454678487 0.203321378630 0.482136245029
-0.266606714694 0.137635980800 0.518778403321
-0.214698944941 0.272138368485 0.495890611290
-0.232630442158 0.129214548649 0.521683331924
-0.269112218712 0.233083540251 0.459488333169
-0.225522649756 0.175003505216 0.460305453531
-0.247063962289 0.237791108363 0.449091993734
-0.265603945124 0.254060745617 0.465025307549
-0.193850344138 0.217735370805 0.508175673875
-0.282361623882 0.289818159793 0.475187462166
-0.173539333197 0.241266239360 0.513536697817
-0.271398475667 0.224973366082 0.482671935379
-0.211291337473 0.242744657894 0.507232504855
-0.302440840475 0.272733428133 0.488131028320
-0.302441025344 0.289096225001 0.443147977212
-0.341295431061 0.283830535388 0.522021402551
-0.294216912213 0.274931414176 0.411073292974
-0.255762068598 0.328965922845 0.467215498428
-0.255431731956 0.228168971716 0.476221173032
-0.362952349940 0.292585564670 0.454308694835
-0.326892773050 0.251335846288 0.435690798961
-0.359550801075 0.311759168508 0.481979186391
-0.216803102857 0.201425689298 0.473489268055
-0.309318378979 0.265647710738 0.462496840758
-0.327984867537 0.295447354875 0.496936200255
-0.346396350676 0.304754627224 0.470670897493
-0.238809940016 0.273787081414 0.460052214225
-0.276155558776 0.290066743717 0.487412597490
-0.289875018482 0.307675439291 0.470311694971
-0.365590418394 0.189414785787 0.516373978637
-0.293652063252 0.224744981380 0.466097445560
-0.301073496883 0.201831306363 0.543360345548
-0.292214150993 0.184707905230 0.499734685000
-0.334121846185 0.217146738066 0.503264539516
-0.299818915039 0.228393977551 0.489511621989
-0.254084460169 0.156026015125 0.479168780316
-0.300768447256 0.238064979774 0.457625633101
-0.321191656967 0.220114465251 0.487084163269
-0.331025628533 0.205805192957 0.494683142779
-0.343275289907 0.158841016149 0.494674501180
-0.319545992859 0.190667293753 0.513262254163
-0.331995506676 0.227785137671 0.501960823070
-0.291414418743 0.157312870790 0.458321523058
-0.343349204935 0.162092717095 0.490331200944
-0.323303218580 0.182928442344 0.466017900893
-0.122438451788 -0.000163876383 0.499928322789
-0.093674449304 0.018972009450 0.494426010244
-0.071377056498 -0.086863254832 0.466410685017
-0.035024628456 -0.105519921051 0.478198001381
-0.042624990848 -0.044633771350 0.516460630214
-0.100188709520 0.008249288008 0.480614589742
-0.057802307580 -0.045497607328 0.433680250606
-0.039522285575 -0.088974791549 0.536241689597
-0.109401269729 0.007752375138 0.503223451969
-0.062052977660 -0.010521457011 0.455762054740
-0.056637815438 0.051120314133 0.513214594631
-0.079978343885 -0.041412819160 0.503881798464
-0.075278049173 -0.001044194092 0.461365099633
-0.093345267379 -0.007955780861 0.431611349023
-0.087075069516 -0.037163636611 0.512638065796
-0.054434209742 -0.022604861165 0.448690860929
-0.126869490273 -0.075067028906 0.454319627305
-0.121449356219 -0.093534160716 0.547120598560
-0.097257471483 -0.073476651693 0.520287647088
-0.045485069571 -0.116339709708 0.443763201191
-0.039705748811 -0.090610626670 0.398747708476
-0.076567106390 -0.118704958528 0.490299391179
-0.028803968126 -0.078820337315 0.505192506354
-0.079277754392 -0.056812978593 0.496396739925
-0.109067791604 -0.068872832149 0.482252154506
-0.065887010248 -0.125798277640 0.521575576005
-0.028588415296 -0.106158054683 0.507467869886
-0.121393218462 -0.086696075615 0.448354431305
-0.155175000924 -0.127177860920 0.481706241870
-0.081130784405 -0.068623562915 0.444249556775
-0.083116278336 -0.136094239827 0.506022003674
-0.060129635621 -0.063236597248 0.467645694266
-0.144335750831 -0.001520961926 0.471839695829
-0.139665817418 0.013855528281 0.432177005105
-0.155678133968 -0.026492918227 0.506628247510
-0.165743807541 -0.005890842689 0.494418139596
-0.207014211439 0.002198553916 0.487989617104
-0.155234272730 -0.004064904928 0.466248729083
-0.166915938566 -0.018262179093 0.444084852007
-0.193784951798 -0.040549156364 0.514077598721
-0.182010750065 -0.036336730784 0.437645556830
-0.124897753845 -0.058398394959 0.480705156045
-0.183018277120 -0.046549391924 0.482506867009
-0.120823223525 -0.028799686859 0.511740612774
-0.112254801668 -0.017886529821 0.525101237230
-0.193083159599 0.016206614317 0.464234931477
-0.173675953511 -0.052749492050 0.466044734483
-0.155954075605 -0.056887071911 0.435400026774
-0.140951451852 -0.102227698133 0.467402254881
-0.134064179754 -0.089824039155 0.470833423863
-0.158093266683 -0.140120249231 0.444153036110
-0.058858959023 -0.128438390026 0.491329600991
-0.239093189673 -0.140026746237 0.491821253891
-0.185881024664 -0.113156219588 0.518911880683
-0.149795757881 -0.131587026374 0.398052049222
-0.143846854688 -0.063423703948 0.523908123719
-0.093585402401 -0.032015617449 0.518658804233
-0.129116719359 -0.122058691150 0.510404188949
-0.142461249957 -0.166802944367 0.486540791040
-0.125809492966 -0.073344345942 0.493717983748
-0.176382361564 -0.058606285815 0.462606205760
-0.228699835702 -0.078350664976 0.495506029966
-0.084013720833 -0.139418562377 0.441315872587
-0.155701052719 -0.138401025563 0.446913767934
-0.045399426733 0.279860718940 0.515873079832
-0.099388479901 0.269994512419 0.495931990639
-0.065380232524 0.296296750472 0.505979416609
-0.024784283079 0.304087336567 0.489451378875
-0.040183070343 0.285401828704 0.482839385021
-0.053917448582 0.347153892365 0.455061543313
-0.075830118867 0.283607709956 0.446373523002
-0.044010646885 0.239688322755 0.470474009300
-0.090552033483 0.278209161696 0.494435704767
-0.087076006529 0.318610518114 0.493214059266
-0.004890354492 0.299299236163 0.473755420862
-0.035387276196 0.274628687547 0.478027566903
-0.029725374582 0.345015240766 0.436908118827
-0.013204934837 0.281515982757 0.481768648391
-0.037179403702 0.246881018311 0.448284039556
-0.074438152137 0.251767981288 0.470698300963
-0.015785092721 0.238845558830 0.480207298821
-0.081723908215 0.273257344691 0.469324328395
-0.081126975182 0.262490421502 0.486065948488
-0.004610869782 0.235741846422 0.506743273814
-0.024498499243 0.235743607821 0.463476234781
-0.079659320045 0.190182687854 0.502687995569
0.007140755391 0.209415220951 0.484340441862
-0.081824672274 0.209754733123 0.459523501267
-0.144485905611 0.211286075784 0.465456126418
-0.099305918793 0.252494386371 0.432206038129
-0.079300410668 0.230577485262 0.487839566879
-0.038047683921 0.273384438501 0.476402081635
-0.060450106263 0.218940788837 0.468706760574
-0.047417695727 0.206527522669 0.458115480794
-0.083477372780 0.199299166855 0.527559990704
-0.100053937892 0.198939304041 0.462815069608
-0.040460098869 0.260275831337 0.518326590055
-0.027201335814 0.251708752960 0.442452689732
-0.068158104797 0.145105681130 0.459135645797
-0.076437574216 0.172747639722 0.504406866108
-0.105551256976 0.196271217308 0.450226392498
-0.094196966461 0.256724392797 0.464523438670
-0.175880157441 0.364725669090 0.505220596029
-0.183120878968 0.281435513677 0.524613541957
-0.150235771247 0.274153012373 0.478806458880
-0.143817683014 0.327037242895 0.432081035624
-0.136053259730 0.218233745755 0.527320569940
-0.157586598135 0.386142723728 0.472585567247
-0.241312471720 0.294828392259 0.509299393855
-0.065301621830 0.306710167055 0.514257741173
-0.095118789685 0.287118951304 0.444712652636
-0.094308914294 0.296597337784 0.521273757475
-0.194025734778 0.330614984206 0.473540643588
-0.136342952489 0.289338728412 0.526438397178
-0.136282007691 0.271125099310 0.485435290876
-0.132657324908 0.219930391939 0.472983128963
-0.150513145110 0.250191461235 0.444854425580
-0.104536039949 0.274127137781 0.472239990549
-0.130009086563 0.202592294407 0.506398766913
-0.175559945370 0.197478622519 0.477506724005
-0.125100088071 0.236560564226 0.490505615502
-0.147665136301 0.229250079458 0.556228697362
-0.128918020273 0.166073873289 0.451604316693
-0.178369024450 0.219131639194 0.455368644721
-0.146281094300 0.217006437854 0.445023789637
-0.159485123185 0.237004266010 0.473544276100
-0.248670275072 0.218816468937 0.446047816670
-0.108866791755 0.223311498144 0.539104943136
-0.171450854894 0.179137341546 0.463032659360
-0.134628823183 0.211196026855 0.503729286595
-0.124643393517 0.221920354828 0.427396221079
-0.173745270859 0.224086014876 0.505004964512
-0.161553847099 0.171156207050 0.453770929857
-0.165621413947 0.219522276226 0.524597005900
-0.109042374452 0.158828043160 0.474782467942
0.092356546488 0.164177310248 0.474262499162
0.121448924611 0.166462306848 0.488043440177
0.157679282091 0.084052808749 0.463112656120
0.159021122028 0.148962420112 0.453459378159
0.073919110914 0.127740089350 0.486972414449
0.149470210327 0.144619672657 0.459442791808
0.152753546074 0.163540706723 0.434780700607
0.151411900635 0.136314333687 0.407980990679
0.085268855366 0.125195932546 0.501181061031
0.084750566652 0.145169232241 0.476198953666
0.109001679919 0.111108321805 0.474137523220
0.023632704504 0.079456177584 0.483157489450
0.106884546676 0.143124955767 0.546783797452
0.085480271511 0.132510093476 0.499390994352
0.171468930251 0.063708315691 0.502143832922
0.098502023905 0.136010850202 0.458988043074
0.145891647510 0.006068231867 0.482049176679
0.089590121371 0.102579479471 0.427813018293
0.129141267249 0.053494448004 0.437058704188
0.172812574933 0.069937363980 0.418937178497
0.100720398957 0.079688908349 0.509544414286
0.103533798869 0.044624874924 0.524771567072
0.125931760335 0.092825138172 0.477322979137
0.123778864770 -0.006998553256 0.423312738552
0.103956732007 0.022446204309 0.510881741984
0.076434671779 0.031642825363 0.480822704164
0.055974229804 0.009357828743 0.476514528034
0.148980236568 0.050203965798 0.524311453851
0.102885582750 0.012866565437 0.477314357901
0.080700505233 0.010890751526 0.461912607637
0.102546056554 0.017872488522 0.478791117225
0.061995552419 0.070881183427 0.487069412344
-0.019696105787 0.217995288399 0.447286502697
0.043469454475 0.153789130402 0.532487831604
0.082131778065 0.152718692846 0.481838445470
0.063015273105 0.140793427766 0.488091694717
0.039474438308 0.061936365658 0.537135469909
-0.003258802246 0.085637774940 0.446970362504
0.024419299862 0.065955559654 0.506304261842
0.040044742833 0.148979202473 0.488679388233
0.029088717068 0.121681289284 0.504192784951
0.004114794199 0.099957125059 0.473895093364
-0.015134932782 0.165776059760 0.425858097799
0.061823998689 0.107480380309 0.474211661753
0.028573644760 0.096954469285 0.487564112267
0.037353141752 0.091965898294 0.463764380248
0.023088441798 0.153525392267 0.482524304498
0.026477287939 0.055513797615 0.432801213580
-0.019054134845 0.050243038388 0.477631931824
-0.000867887698 0.041509191601 0.480804380958
0.005109538017 0.015543001121 0.534686796103
0.024688126382 0.053399573602 0.481043975510
-0.051423123630 0.053975753523 0.450403258182
0.077706244245 0.037592576771 0.476549195142
0.019734715147 0.054086113084 0.464588489117
0.041935610724 0.055260563129 0.432966689839
0.060967085779 0.022565322205 0.513212050005
-0.004058548213 0.048575511363 0.501740981593
-0.020728376185 0.075958594056 0.478990617724
0.008276645408 0.026681667882 0.492531858232
0.028080561450 -0.010160062916 0.447641564409
0.037002422508 0.066728682722 0.491246835671
0.070094277653 0.127402946650 0.488458136201
0.018855773984 0.023544378160 0.419629507098
0.148940148220 0.306818515905 0.472757399056
0.088803505863 0.307060199105 0.525220994928
0.190829708702 0.301954170866 0.471157529349
0.161545629471 0.264327284535 0.492363484461
0.164133017715 0.302819906906 0.517794357680
0.157383124823 0.310489044399 0.436742709101
0.152454647933 0.309648019884 0.531995331873
0.166650715893 0.317607675945 0.493143959835
0.101684146667 0.269847917535 0.492856348328
0.191990953410 0.211598684871 0.490658034009
0.124038803027 0.246073015901 0.476860944338
0.134389764768 0.272383827253 0.409619331338
0.120791898606 0.321276212880 0.495215704618
0.170585183191 0.292090882856 0.477159759197
0.134375453964 0.301920785906 0.483670436099
0.095475395938 0.287336953655 0.521329690153
0.177445687108 0.272513839491 0.464735152830
0.112807929355 0.254671467063 0.548176091870
0.148559923014 0.296918559070 0.478829941174
0.122722059606 0.288295400065 0.479739792582
0.180847924188 0.254110987383 0.464978034082
0.155718226687 0.267209124535 0.497600109315
0.146410640158 0.248812965921 0.464127526831
0.169502913426 0.269564861617 0.488817773784
0.121824634098 0.233241176491 0.499297554093
0.153520434464 0.207338976909 0.426177804137
0.052265382973 0.214010385143 0.455121296178
0.177697436204 0.196518248019 0.475511600998
0.144998036187 0.206757461289 0.415888283850
0.066978253754 0.281863911084 0.448454359418
0.073875047223 0.173344962801 0.476212067708
0.056173214026 0.190390286553 0.498294307374
0.153366414662 0.195015654201 0.473801408994
0.144237455036 0.253661940377 0.499796619793
0.113267287495 0.199019892398 0.452084595199
0.119013931461 0.149644597400 0.446445488798
0.076633804344 0.232661012030 0.469181689207
0.194159259510 0.239872147796 0.478165355174
0.109739473207 0.265689679676 0.487502850460
0.134621055130 0.233610338164 0.475215426752
0.160884830313 0.206600174869 0.451342032497
0.130819380906 0.221868221171 0.485324893849
0.080676526634 0.297943669851 0.490053974413
0.072092307449 0.285213435304 0.469245402349
0.007951732494 0.232749014548 0.505113413884
0.032485013421 0.240500786004 0.481865075249
0.044283071851 0.270474804611 0.449678642815
-0.007925111714 0.269445839894 0.535919177639
-0.049447508469 0.307274230205 0.480925361987
0.033976040464 0.300627486417 0.472379208535
0.035420786642 0.302725855153 0.434111404834
0.038216690907 0.300656466489 0.483945451323
0.041802506891 0.191973996984 0.496989860741
0.055210782276 0.237857985725 0.442597252778
0.026086832520 0.233941222538 0.484338873437
0.056463061505 0.275499720462 0.415976382577
0.051571911079 0.219153336066 0.493874221596
-0.023270280122 0.350351174451 0.517493643391
0.075188989131 0.230715183576 0.520139718769
-0.003284756733 0.295906523565 0.492103327504
0.063003525157 0.251614875906 0.479402983925
0.063968223124 0.298464188688 0.510220636125
0.060454789605 0.241121464607 0.496859279801
0.053451285394 0.170423112352 0.444698745862
0.057895657368 0.211161013571 0.475807187542
0.029739020539 0.186874680480 0.505905051190
-0.006238822562 0.173236378111 0.493067871726
0.049476211235 0.198342778822 0.426265128785
-0.022331555147 0.214786758752 0.468879300663
0.054515883310 0.229527553365 0.456220866002
0.003157806157 0.194383527472 0.516570388192
0.060503519181 0.215914576665 0.526642049684
0.001026838947 0.255478753396 0.505683006988
0.081258445533 0.206649734268 0.460449945467
0.033780026727 0.104719441257 0.484755682067
0.040674307604 0.239762725722 0.520004682353
0.010690631156 0.195861898565 0.508821836124
0.091011427421 0.239581166655 0.503308738843
0.086848748319 0.157304496317 0.461411974289
0.077708365354 0.252198552905 0.494093333864
0.013574498091 0.283378578703 0.520439756436
0.069556200264 -0.033574680790 0.509580284434
0.112279401506 -0.002818219417 0.489678561268
0.075995907845 -0.002270458366 0.519050658434
0.113937460520 -0.049286682611 0.495311980279
0.120533734324 -0.005421995616 0.478958400671
0.087915304373 -0.016673404765 0.467705466522
0.098520648225 -0.052582810795 0.505928228178
0.071199358528 0.049607326241 0.454538456253
0.106788080901 -0.036369320461 0.506110076033
0.106870331466 -0.025882055493 0.483135693735
0.166839586784 -0.034271002307 0.454911282107
0.110649644360 0.009683585711 0.469101853163
0.139321872413 -0.049941210599 0.504279811737
0.087265497520 -0.050397222420 0.417467214865
0.147418903582 -0.032742388801 0.543100067254
0.114527515192 -0.150098522258 0.506012565485
0.105346713757 -0.134595830785 0.451662957781
0.079103075169 -0.104805396291 0.496136982351
0.115148728846 -0.105540627851 0.459613778820
0.107837613293 -0.069722619762 0.482282596076
0.078793433533 -0.044446334439 0.487282174915
0.177196449192 -0.081265284066 0.511176903016
0.094450848585 -0.132379700414 0.460483631793
0.046171157747 -0.125516053140 0.483028417283
0.148210553654 -0.067693831040 0.450158543120
0.106195311712 -0.147212071047 0.531208889532
0.138940912478 -0.031861691142 0.492675544318
0.122920915567 -0.071833018872 0.493213044746
0.104545806222 -0.041104899958 0.470240816646
0.072506798819 -0.113983558108 0.480577238402
0.088046730452 -0.128039466013 0.498525097370
0.066318060723 -0.058256980571 0.465828433495
0.006171034250 -0.008543356045 0.444660205161
0.049248990592 -0.034858281813 0.488784581786
-0.006365925983 -0.052626070661 0.462185130398
0.020735721876 0.001974649138 0.475965338864
0.024068062301 0.045868911505 0.461946297260
-0.007975321433 -0.018058286538 0.518716544372
0.016108741114 -0.004182411629 0.445642818642
0.036084437872 -0.002060218072 0.497182753832
0.058287424768 -0.044812435844 0.494233143832
0.028797626439 -0.020070799843 0.500601950082
0.005359199248 0.000172937118 0.462696695892
0.064541009239 -0.042415461066 0.437952196442
-0.019713963077 0.012386046405 0.467810484132
0.053833389284 -0.014987462567 0.506479824056
0.078164594045 -0.034274661761 0.471901871174
0.011836111325 -0.113571203527 0.461036861480
-0.021553775992 -0.054854441372 0.467255880114
-0.022735998618 -0.130544949293 0.492127764310
0.017007898438 -0.103218642636 0.428833962070
0.082158142526 -0.101648107574 0.440776487038
0.006697024521 -0.091751195465 0.465787053855
0.007960269212 -0.159897857244 0.535297777917
-0.002159353789 -0.030173519724 0.496928132700
0.010075254963 -0.089179472553 0.482305364455
0.041763732322 -0.106603447094 0.491410918326
0.022305982425 -0.135483830866 0.458536278847
-0.019306538061 -0.089768438911 0.477103898597
0.048979189121 -0.112578499796 0.472480005904
-0.032805665776 -0.183088329742 0.482087577827
0.023907798709 -0.082849189027 0.464787600062
-0.003756494896 -0.058518707192 0.530178396088
0.294504116015 -0.030558181357 0.487250149704
0.250867262056 -0.053632909275 0.511095262862
0.267960618295 -0.073661479723 0.478872390947
0.204611588780 -0.035791863447 0.437717558257
0.293075929473 -0.072964741602 0.486008809964
0.259981099381 -0.035937450451 0.480800767352
0.349714225179 -0.013810838727 0.511079862604
0.252023815959 -0.057982617677 0.574628513533
0.150491519909 -0.011758190219 0.464146807611
0.229173160720 -0.044568976840 0.485916568883
0.269812048920 0.052650080093 0.497699305614
0.260989736848 0.007104377846 0.422326010186
0.223934928452 -0.061920829486 0.515465463224
0.293326133774 -0.028134559896 0.492116583341
0.165202692211 0.027762422911 0.470824693796
0.206438683165 -0.094119765490 0.515128420930
0.236732511471 -0.100587769754 0.466806770833
0.211416064587 -0.054318832152 0.478331499151
0.283139053656 -0.152818116616 0.454027018750
0.210523296359 -0.068396715352 0.394626946607
0.200591961460 -0.074318212738 0.495409290947
0.243708991717 -0.060694812505 0.495945721595
0.197304086153 -0.127349738776 0.475642008971
0.212485013678 -0.112616702726 0.518078099624
0.320284268340 -0.105152065780 0.471697195084
0.211272117380 -0.161752165235 0.460963034366
0.214865649855 -0.120805340545 0.460894320704
0.205841778663 -0.063489703948 0.479559718816
0.269344947942 -0.072291777253 0.501066856989
0.158628313772 -0.103651593673 0.459451536681
0.244901063211 -0.072281863374 0.453564715736
0.263812212584 -0.133703806015 0.514543125367
0.167775861267 -0.012110281200 0.418001317746
0.167686578705 0.046005722450 0.505559516577
0.222130742021 -0.010777130015 0.443257851031
0.153717896023 -0.045681758524 0.502836862300
0.179730699483 -0.041568312191 0.501519653631
0.146536322252 -0.051159471023 0.505292179179
0.183376230761 -0.047301253286 0.550271944940
0.171481753314 -0.050170386790 0.510895915416
0.165024815959 0.008515748957 0.517056934388
0.131423161438 -0.057210703344 0.519281415724
0.137519162562 -0.025687347177 0.506606800478
0.174107318517 -0.057190051090 0.544144718905
0.176119433329 -0.051281806055 0.507870777879
0.189546988763 -0.031597144271 0.494944734516
0.115186374933 0.016031257821 0.488817546023
0.084084683780 -0.138485714885 0.482616147373
0.148321119458 -0.188091010371 0.423989157903
0.147934941821 -0.136743881725 0.438553752710
0.127486640355 -0.151818012330 0.492930838617
0.105694213918 -0.098579981832 0.511142238533
0.182462998691 -0.109888990509 0.463899571223
0.143391543336 -0.097546968974 0.439026104048
0.158418680243 -0.061132341793 0.462406208973
0.165009823326 -0.008492106581 0.473954985411
0.109569929628 -0.114297967537 0.509345327677
0.156109001106 -0.120284541751 0.495654541051
0.190350921654 -0.023189742799 0.451617739886
0.134790464936 -0.110082325191 0.519164808783
0.131937628158 -0.103415956648 0.492958508019
0.110079147227 -0.059424253310 0.487772009983
0.130695237263 -0.112975876947 0.455988307561
0.150606129483 -0.111643571843 0.488578640791
0.336428243071 0.222592060922 0.444492790285
0.305437923522 0.258853060906 0.465214535813
0.316811131072 0.209225009370 0.495693418889
0.366193939563 0.304233448905 0.492750008290
0.302949776305 0.277595426332 0.471670401711
