37.568343222822 20.847384881710 -26.955929000764
-24.953883821338 17.375616571520 -2.774346904231
-7.714361673649 -12.903799596292 7.115024939911
-34.287200911310 21.153894502084 0.496851792926
-23.513091839411 13.732566016349 -3.461073502593
28.131164020503 -3.322228832086 -20.327611500101
28.190878184639 -11.599588696186 -12.160503241491
-24.408837817066 11.802457430075 -5.985323034106
-10.370832520609 10.891407974543 7.932431042144
37.714669164854 16.488996182544 -11.202460125091
36.286185189120 20.435534933212 -29.478545244208
-11.104650492934 13.309986895492 2.753705813410
3.218115387025 -1.185201795674 9.169933802721
3.747570633105 -0.969855224878 8.901694026069
10.908776752373 -16.737367045260 -7.756894252971
-1.653102749076 5.940791920842 -7.663136572065
-8.241819510911 12.909962451245 -7.650010730812
-4.845304277769 -7.160114088850 17.657013809679
11.988739543630 -15.388678694755 -7.686040678559
-2.962438829767 4.941365273863 -7.758057392790
-9.228206947640 11.658880766536 -7.874126105449
9.456920010242 15.049791535240 7.921792465422
37.294875016097 6.364165845380 -23.628242055625
37.370840555654 -14.881656741120 -2.096203472927
28.283831952154 -11.674718439578 5.650120273164
28.181766219980 -10.974249046799 5.473425367040
7.625586270092 23.338457785571 -4.971062894468
26.100400626413 -13.889520543943 13.113559454168
-37.010331030822 -17.003822581286 -7.198676245363
-31.089377910747 -22.885578212686 -6.995560853943
-26.340086427509 -23.513789902427 -0.244116994968
-37.698447583354 -12.232478263924 0.046263446746
29.057921935428 21.408799873357 -28.758010062971
21.367247725486 23.460987066924 -3.447185278187
-37.397402999791 -11.929069795325 -1.635349221855
22.426839999320 23.523544532631 -2.394334932033
-26.185507061778 -23.430686469361 -1.695265420119
-12.359863410698 -5.069668579380 11.438928197273
-16.030587126174 -5.693921521984 7.655508087815
-25.461767010958 17.457665510908 0.577722656531
-11.663575695848 12.094242236107 -7.748860874935
-2.079378877025 2.657318111104 -7.694822114405
-20.176225611563 12.701303862073 1.636854167429
-11.442525505890 21.463823997992 1.669438561646
-17.956690606491 14.861588611983 1.538663456886
1.316345285998 -14.659485521737 8.753680134617
3.326658425206 -15.062502148654 6.769958484047
9.605273881944 -11.257655849617 -7.756750224584
-6.070433622874 9.350768555938 -7.827044131941
-5.006732902796 8.156233007758 -7.776675244312
1.146164351522 23.429230768303 -1.061628967197
20.365935249906 -21.105129067935 1.657895317650
20.757047985428 -21.430734994312 1.683886708696
-2.359983828907 -8.984841746832 18.607419039623
25.149719131214 -14.983132716161 5.023553094604
20.770155768416 15.012892536843 4.314020226597
4.340784144538 5.925569399412 14.369628147989
4.435099172046 23.631450359149 -2.692079035457
6.453749690508 23.481398041930 -3.269986230673
37.101413570173 6.018030224706 -32.189678336103
37.477229445278 -23.322592395694 -2.627791494983
-14.477640927676 -7.116422813855 8.082917254972
-18.544454768055 -7.029782856999 4.249420025644
-6.883940520555 -7.153178785660 15.580323987485
11.444230259257 23.440969180730 -5.595257422503
13.490409996604 21.474378549988 1.541071019999
13.682468895694 12.121378358004 -7.777062584167
24.064588832452 -4.951528955635 9.561455351069
28.141123777946 0.162779518509 -16.491846380429
28.109074994620 -7.732413518343 -8.686062660612
-8.532850645661 -23.329971564731 -0.698303200768
-37.454974549212 5.382535177010 -0.544644815934
-37.381742107076 8.338395980857 -3.371769318504
-6.120805408154 -23.233146856761 -3.253484493459
26.019679670501 0.069397552293 11.643344970487
24.313535886698 2.701718493375 9.542194735823
0.484865838575 3.493155715362 13.274102353398
26.911813413275 3.493288957184 4.383812031979
14.939587761675 23.418570560414 -3.927345424641
8.659517840802 4.936639762064 20.225224583443
3.471292394550 4.186208715820 15.795585171003
3.913674589187 5.980206231240 13.648668446889
-15.808016584525 -23.389818864680 -3.535110650250
-37.520958694124 0.504026773722 -5.287599486384
-13.373941500741 -23.581496032690 -5.504382318038
-37.505360492468 -1.719628229382 -3.271581827074
22.470563401210 -6.520257625902 -7.732051619244
9.849428210197 6.589072207242 18.124992882978
-12.711004653405 13.184692865517 1.613324603192
18.103298000013 -12.701351378587 21.116374037915
15.563350818260 -12.500437691206 23.793150550389
17.943741015812 -17.681861775445 1.681360986902
-27.317109096144 -9.440316964019 -1.003312886158
-16.471165748466 17.221165353215 1.679836085390
23.290441365350 -22.796801833533 1.720876356583
-0.446954965589 -18.786720902047 1.591298933982
-32.914613787568 13.725128020443 1.668732308775
-5.100086937775 -14.284270853562 5.951820803993
24.249435539932 -10.917654605834 -7.741584581622
-0.568996275331 -13.946100166095 11.078155006771
32.444845310049 -11.466989473600 -26.378986300813
7.207987134426 6.539817793124 15.817549928720
-1.584791821078 -13.905452124917 9.850565712654
32.350098867715 -17.923112537678 -20.228541209152
33.524736357415 -23.407376287644 -16.031714756164
33.382515370120 -7.107137885605 -32.163365064494
11.400798022050 6.741291654975 11.550100852247
-12.548535661529 13.749783179232 1.675273902375
-11.152912974183 15.500788048992 1.676748842479
-17.282113933753 -23.401374811144 -6.645310994304
-37.449425547322 -3.421266852599 -6.809054071648
-7.102261191221 18.765279702159 1.684557601890
-6.732057502769 17.681169535526 1.683288304082
-16.893563403473 -6.602179983258 5.872212477315
-17.134771179007 15.413402931124 1.574145619243
-12.758378841016 19.994483860783 1.728619719513
-11.412709415940 19.280147384197 1.589013470268
36.766349014944 -15.892070204437 -31.830679634708
36.575068129003 -23.364386162512 -24.777848610222
2.781241812305 23.549246481944 -1.744122474321
37.460445753616 -23.027218200069 -14.760935208477
37.661935451916 -6.026749185753 -32.051529952209
36.934544834252 -5.461092280494 -32.366275520455
10.486087248656 9.711645318984 -7.820098855017
1.615660398698 23.517930341661 -3.228001859715
28.175319749722 23.143266550795 -12.045618375754
36.608553204795 -23.337409661247 -14.269889644823
14.834062951858 6.338105662384 24.038083963920
-10.127114005208 23.516161413263 -2.965728936188
-8.291208347786 23.513828331437 -5.016640174450
-4.350132353773 -21.558812506668 -7.764458002299
-35.600652906609 9.650859158596 -7.718281725837
12.538512828919 7.091671010591 19.903375473945
28.103524602393 16.646206002959 -29.626729594079
26.273069223900 -3.212355258611 4.910500742064
-37.403539632002 -3.883619369126 -5.565779983249
-18.030496492660 -23.416948111138 -5.580734911248
14.607697785060 5.568396408793 12.007356387188
16.531598774314 5.077162802120 13.129620989802
-12.617290184011 18.735824477427 1.636992502486
32.829552375297 8.787262497698 6.404501781642
13.774027912861 6.731590358042 13.841864666787
-1.544463057152 23.403628536476 -7.054948572927
8.710975681508 1.795757373755 3.755013379079
27.968996467738 -18.528445053384 -10.545992357588
28.143478071439 -1.859821389208 -27.460957230857
25.813320374370 -23.437166474068 -3.497126947929
19.676098297957 6.663421548771 19.030991507527
5.500397592351 -2.229579428819 7.086852965607
1.761176509443 -2.192735197001 11.011474450892
13.860680208946 6.663290198718 25.285596952571
28.115949149081 -15.638173643723 -16.019087622011
27.915783034013 9.279927744999 -7.730630942596
28.035796747109 -7.207599024735 -24.048314506021
28.145421007529 7.903420092709 -27.961642482019
35.779246530814 1.708208818559 -31.954542553328
20.218809267077 1.614481283009 -7.745143518509
35.692106968433 -23.437655712727 -7.224758317167
16.596628756324 -2.119388942376 -7.729130566711
-33.872453860914 21.427752688458 0.406998982826
24.225189622051 5.334561414724 -7.866438243957
21.144015760737 7.696504650990 17.925359243544
12.546470307147 7.931181853616 26.683972522349
-8.647616944969 -1.607486553074 16.323916679923
8.144032451173 -20.346391392936 1.512460664207
-9.578912816180 2.080755834445 15.365745970072
-9.380729797944 8.969332840374 11.526977561710
-32.610693119263 14.625311894128 -5.964292368565
-8.326654894360 2.718556028052 16.436314322330
-7.662464828106 3.312875499629 16.968688434809
-3.949170540286 9.960074213299 15.659697850995
-4.755640311208 9.437376766899 15.633466393445
24.182899002035 14.906110211906 3.314242299211
-4.437086061099 11.058037965547 13.761335606131
-4.759720518803 9.475507593515 14.947273283924
19.382659397597 10.534168897210 19.871364244650
14.512800906250 10.649530645520 24.684854322898
25.747761135495 -15.488499920381 1.561433176757
15.775840614075 11.976038780070 23.322712368625
18.018706247937 11.835042956718 21.227884753947
-0.484297417881 23.407056252873 -4.809102984218
26.185503723113 -13.925019189648 4.987519345055
37.550304181363 -19.851753480533 -25.326345140125
37.594703672874 -16.537061385082 -28.615103811872
18.598315875681 13.742715553544 20.571692412840
14.986183730084 13.692274380732 24.398538051343
28.197331809513 13.866884236258 -30.258706784141
11.679133235718 13.855062758366 23.279244090706
36.620108219453 -23.302025386177 -23.153787521478
36.703755888943 -14.297149793369 -32.111095223219
32.846626037885 5.577951096722 -32.092302081988
32.673964063625 -23.492276716955 -3.449187847353
-31.336987320036 17.182424119415 -4.384645158161
-18.578604796845 16.055666569104 1.553800719209
1.812319435565 12.282779368937 17.893376300705
34.477670813943 19.996369454861 1.520294771850
-2.722241601211 -17.661252312566 1.717569719963
-31.770641773728 11.340628769821 1.592653386364
4.198418331662 13.361058704981 17.461760619247
13.158701028227 14.553327776417 21.929483157156
35.286321570220 23.386418048070 -8.830738981228
-28.190241836795 -2.568973891156 -7.679093828710
-17.087014744541 -13.925920620605 -7.906808373037
-3.200590642155 -12.341384524860 12.438841532355
-3.191293606648 -3.886064418303 21.246872236519
37.402637147671 18.858246290630 0.950108767070
14.581911348166 14.999687828112 19.733204752146
14.209806973944 14.926317069105 20.224108461228
-4.255263167090 -3.602679904208 20.203724987676
15.337427397142 14.796360682332 19.170395639208
13.762017845839 14.752621021330 20.744443085491
35.073056117491 12.223169382376 -26.889419606463
10.471380573026 -23.453253149913 -2.267114969015
8.549903290787 14.154465975962 19.713249820441
9.059590734576 7.092683928470 10.766504752153
-4.951826623376 2.733961698398 -7.836081855444
-7.331367005326 4.853439773369 -7.584660839524
-2.662496913271 -7.333352902207 19.789676962021
-9.208718253253 7.250991732478 -7.839958496028
1.388705211126 2.494216561245 14.543694123449
-11.446761734474 9.477219628515 -7.690425894034
-16.997331649400 21.587839787817 1.633171989816
-2.069330437255 -2.767552949903 -7.717361107369
-17.134586639223 12.132750905779 -7.767619397615
25.028306941353 4.870726747015 -7.851653036770
-31.855429330262 -22.658082766279 -0.267274446964
-5.541478684772 -3.837024550236 -7.744226777241
-36.741700189234 -17.752001439657 -0.076326088851
-18.107722278514 8.903000673964 -7.775978257182
10.587883803982 -11.476058126201 -7.711583507767
-22.385273096303 21.831054743454 -7.626014792587
7.730752697374 -8.087203419348 -7.654344498643
13.745708115903 1.732089117465 -7.810442400674
11.512212270664 -0.574043816216 -7.773792465243
36.148806581007 -23.542725803566 -23.051273241917
36.122802390716 -14.230684587709 -32.099256628422
32.816682701184 -19.238718170012 1.758548389661
32.386973614731 -18.925319708457 1.703009308544
16.453100584599 -9.801399421628 -7.713762104595
-14.249559840391 21.054123414438 -7.797671746346
-12.972285085131 -0.090470879965 12.146464870008
6.531744998189 0.102563290683 -7.639881439657
-10.539665927604 9.588181396648 9.478367547097
14.848379033299 -15.388722947771 -7.867382202397
-15.780538795169 15.553081085917 -7.652482045339
1.129151474442 -1.624979888461 -7.825979878001
-13.722721931278 18.222248821409 -7.691619877956
3.886328430345 0.603702982348 -7.921353887099
37.609544234664 -7.636051977562 -26.726134607780
10.527967158221 -17.893731874475 -7.791712264356
-7.670861050264 13.988310794510 -7.818595452875
-0.507590812887 6.451543390815 -7.672555902215
37.310424396721 -18.227081773533 -16.720668886784
-9.854522738597 16.584624156664 -7.768038977598
20.928868850135 -14.503827613987 -7.801560172438
2.398489984956 4.488556908966 -7.880717872662
-9.290038317360 13.941518591355 -7.621579712999
-0.678899290076 4.855568776993 -7.672824218478
18.772042528832 23.397030839920 -4.431840578522
18.674141005784 4.437097139803 14.353240646672
1.868971668778 5.545884233492 12.705310041444
-37.480072361541 -11.726992856673 -1.072997710521
-25.808279491591 -23.502434048220 -1.332761345540
-37.472461502052 -2.088798194349 0.397848243143
-16.410387116275 -23.511005388711 0.484311076263
9.729085037959 17.152676397568 -7.749247447489
7.647690326833 19.098058785220 -7.943059763690
4.726643169172 22.069456148078 -7.718067318573
-4.539527110978 20.275663744726 1.753903001098
7.784607495393 -6.674876831287 15.880321669669
20.061893953725 -0.456170971342 13.754846657374
3.882566308571 -11.041820442311 22.311576487389
28.061682153864 -10.176074191595 -20.152202199857
28.427027871646 -11.177963453169 -19.422595814582
28.278143829927 -11.428428095030 -19.228251699783
-5.849093472913 13.481292105497 7.109441440812
28.610287071444 -10.494590722586 -19.848858650006
1.715542425326 13.579929341727 14.547020046305
-8.682889203048 -4.918738246368 -7.643348308979
-19.146257857419 5.336372963990 -7.825189027232
12.023491707314 -2.140857100430 5.988200091130
10.904269889447 -6.850526284447 18.030409123683
12.103031141290 20.451797634247 1.659626025614
-23.077778971152 -14.928482475181 1.687690123497
-29.126080000943 -8.744368137643 1.638157005934
5.841182001709 -3.272114514501 30.499495405885
0.443359053430 6.665338003882 23.286095349863
-13.798488979855 10.438762975746 -7.729257235637
-3.701741518276 0.523220078538 -7.559190081746
-33.294990778803 -18.926191906122 1.770872273188
-32.558090845693 -19.564825393287 1.542778095234
11.446711075821 15.898642256553 -7.720234947931
-33.961778357247 5.573967236048 -7.707855592103
-2.687623362992 21.581311507079 -7.823585144740
-4.426936620964 -15.661984968252 -7.692490845220
-8.695986744696 -20.073042738469 -7.781449382820
7.107405459482 11.606571136948 -7.824985470174
-25.650820069380 -21.613497950278 -7.886434169672
-35.577434973888 -11.514219213588 -7.752073242986
-29.777831943847 9.865012304994 -7.658490741333
23.534160858012 15.019684774366 10.721961330011
23.442101595752 11.681191593226 7.654659541218
14.210894032311 14.948625796520 2.664478334149
28.190290350772 0.493572505984 -24.173868971201
6.246081719486 23.267205852873 1.667384416334
27.995033824689 -15.439243359966 -8.164853217018
8.669728943815 20.379795082592 1.458163775218
-24.688099646732 -7.804693953922 1.447093048153
-21.891616636246 -10.433594677454 1.603195106480
17.884958903456 -0.040183007871 11.520170327838
19.882439326769 0.476102566531 13.565580276374
-35.534528865601 0.007425761383 1.494915983510
-14.069854746588 -21.476585693891 1.557718896639
20.280379662395 -3.745395946036 15.593436943537
1.866836568286 16.540360021470 -7.633917148230
2.115411169364 15.963540039241 -7.642685298027
37.225285022874 23.287496538479 -23.627836147701
16.984610789486 -15.094612325301 16.013985715749
32.686418175201 -0.139285951461 6.440938580006
21.896149175158 -9.302342615061 17.159417486557
-4.330061648465 12.071781702582 12.042079038279
11.867679696974 -9.539361995984 27.523441404794
23.475011387588 -12.614297606158 15.706077015167
2.795043836486 -5.257151149258 13.796216984454
-26.237772497893 -9.993190122825 -6.112725732189
-24.047639959674 -12.220341376331 -6.028144770547
2.885157275852 19.343362512994 1.698493773948
4.987556761170 17.159424809300 1.642479278179
7.849717332183 -0.737955579550 21.792082365401
1.106133900806 -1.837111509197 26.041006242598
-12.537218940247 -10.881748926476 5.894627539777
9.853863290490 14.347400959209 -7.742924125192
-24.020106915464 16.011549428996 -7.428712675182
-12.609985356594 -10.033482988439 7.141679759959
-9.924586933424 -7.227956806273 12.603124509628
-21.016207433969 5.108661479321 3.041721050705
-27.256682032921 18.392255795427 -3.974110585570
-4.816387199601 16.546640392102 1.687940202774
-18.238233084358 -1.715843537906 6.704805353197
-5.338881688470 2.116986717520 19.603127550877
12.191295598438 -16.071791191789 1.417586204059
29.583715250171 23.547760486430 -5.593764011146
12.966209538446 14.881153979879 4.900550524842
-17.939214535886 7.678964428520 3.929811339191
-12.014960147620 -15.005389041374 1.582588025849
-9.339966917198 -17.606850724684 1.825083907555
4.447940678630 -6.412965233192 12.938346880062
-4.875173073080 -21.905100897019 1.687280353597
-36.258081514118 9.387838105437 1.594334437801
-29.022712832896 2.437485641886 1.637168403675
-31.680220646007 5.143019030445 1.589101705164
-32.409060513957 -2.869776424082 1.570910035420
-16.945383125745 -18.280512080741 1.654559173838
-16.342014337712 -17.442808558201 1.490153751623
-31.688504258650 -2.276428138694 1.532416923829
15.308125849375 7.130606047127 22.474971385161
28.042139103664 -19.760403075416 -9.493490175927
-16.951039414929 5.004625935944 6.721110330720
31.122231332199 -0.632945194116 -32.195054144262
28.414960944128 -0.688517069935 -28.529977433010
31.401999303743 -23.568355041002 -9.510489336959
-37.535851168704 15.206540775741 -4.213239383892
0.962014222275 -23.516373066124 -4.218883998162
-12.703380268975 4.923053238690 10.935546115785
15.916606466417 -18.821549110060 1.496721562622
-36.602262899693 -1.162719476419 1.673320556754
-15.200126408026 -22.604630113187 1.667037143901
28.209304743686 -4.531453246033 -24.823273677658
7.150687304497 -0.629899513379 -7.805627403758
-14.934697632340 12.192796147447 1.506262629824
-15.074778957700 21.487781323105 -7.788637354568
28.001863949955 -16.181245689596 -13.390570864275
12.229529546106 -4.276828114884 24.214255896532
17.004242557150 -15.812297736201 -7.894812934875
-35.823133490070 1.625570813531 -7.728535855365
24.091899381127 -8.930864578524 -7.825785398181
-12.571631553211 -21.493007757668 -7.728010091865
17.016993420349 -13.406862220120 22.081234750764
16.466710520400 -13.562941019267 22.619212025584
11.515748770159 -13.540680740948 24.887699669429
7.829938405893 -13.589492779463 20.168873769065
-15.949943271988 -4.216352960034 8.229838870947
30.039912049593 4.915592241677 7.505919710650
37.363746131342 -22.005532448855 -26.978914532397
37.673775285563 -16.246503428616 -28.742963518085
37.661578901840 1.650463066069 -10.767858567871
37.618049726660 -19.858928489124 -24.821316875509
2.577863493800 -13.300366975755 16.589130987328
37.440152750745 -2.352953671657 -7.288103142854
37.502051023089 -18.009477453261 -30.621432075087
7.805300166186 -14.297546632442 17.378239524785
3.796555774353 -14.210876184618 14.875227110577
8.866955235295 14.940429559595 4.900554457334
-10.957901802780 -1.830152365148 13.920432317400
-6.639750380742 -1.751078770300 18.305454719185
7.855062924108 15.022208811123 15.914708865729
10.508605791295 14.896528760040 13.159974380558
8.162296013747 -19.898968255374 1.695281368190
-1.081135095358 14.736421770417 7.058617465310
1.689298454782 15.123755341836 4.197061563262
0.089877784049 19.190068984419 1.680835498913
3.773045163770 15.056991950585 2.791157785639
9.770400656124 -22.143790114389 1.629405358067
36.089553572130 21.998128191332 1.312547433630
35.166840444716 23.494002376929 -12.161776831239
15.331300607429 7.684630127364 -7.662754519733
24.230235679958 -0.991246159545 -7.797513274452
3.950428175824 15.051556322251 2.286997275858
-20.633106575552 -21.426209908580 -7.671189646598
-35.687037475323 -6.621711252123 -7.711501585965
37.425168312233 -20.820499762921 -5.124081096621
37.467117835239 3.740192531041 -29.756903215585
31.655614765031 23.445661933601 -21.439922038647
13.686215355034 -0.969696519996 7.600188531225
-3.728708755007 -9.988525848848 16.153661878098
30.057332728904 15.107109988838 4.894374427316
6.621320534840 15.021825411994 7.569582892580
37.415860152791 0.611557463891 -0.254008413897
37.650119783576 1.419421732138 -1.186929220000
37.028717794926 -1.516325892293 2.156710131200
31.728374795602 -1.706773322097 7.526241262267
37.454471921136 7.803486959095 -7.322067483949
30.369999382186 -0.688165335951 7.918123407660
10.959370470258 -1.934158927334 28.294977878239
37.605969863586 8.868742013408 -8.293790307473
37.575703473409 11.147309493847 -10.491868765389
22.819105245571 -1.515164188696 16.351231629644
19.091547934433 14.960513665315 16.935343955865
4.877265455581 5.651114729909 28.287290163703
12.654711002100 7.265785345133 26.613643729993
21.028172036939 7.160358631731 18.166015261820
5.342495144153 3.219464692731 29.652195141096
-0.635887875209 5.089149208900 23.153039710634
-32.574067188706 13.924058565348 -2.833136403951
-4.013392183909 7.069582668528 18.715773580887
-10.590159592408 7.170623648808 11.999093666550
3.865469906356 9.906868105393 23.584344393428
-31.951355434394 20.413127223543 -7.570589215210
6.057439533397 -17.759289978918 -7.873099429702
16.987755556470 15.092865202686 13.562206530809
28.241501818319 -12.470618246471 -18.288947276505
-17.758194449699 6.833008193207 4.902670680473
29.569129269293 23.406982833108 -19.224149225100
27.913215528790 -9.202678407778 -21.286935003961
22.374421752144 -15.026090951303 12.275500042358
21.937307532272 -15.062745309931 12.996699839212
24.124092785663 6.647668572179 6.875527019360
-30.691241787091 -17.759666061621 -0.095454164279
-31.756531178397 -16.563324452785 0.105450989197
2.882399749873 -10.560725288958 21.938731631612
-18.094416832674 -8.183516096001 3.363932062243
-21.422758169261 -2.739106723620 3.329723285937
28.011775362756 -16.526854364367 -14.252783081326
31.641024884887 16.832769460607 -31.813075516838
28.300077119953 -5.586896504236 -25.494710699726
-16.425791133929 -23.531712193261 -5.107880666217
-37.355180665241 -2.222019510372 -4.835917925800
-24.220961406872 11.619186901597 -4.998613496058
13.276622275282 -19.511212405165 1.430502295972
9.296207334234 -15.092198827976 9.823513354084
13.798551947650 -15.020389433865 5.520892386117
11.946386790674 4.388810773369 24.370867186231
12.343682827090 2.914017607886 25.565843264212
14.545144725951 6.553282403179 24.734473231113
19.026641688474 6.831524617241 19.534892565461
-1.761492010017 -6.062859335846 21.408428760994
-31.637272604054 17.114807907616 -7.755519328682
-35.017125260015 13.938454864258 -7.727860540343
-0.205353354854 -20.836011371743 -7.627740481353
2.682554962283 -17.761578332900 -7.829211683631
28.843576686943 20.620910555250 -29.383552820559
37.677767778935 -7.594774821111 -19.236701726761
37.388620010146 -10.341633707882 -16.555782417942
23.164498950379 23.403125280948 -2.801188880175
17.024455461231 -3.572812295329 -7.872563012650
17.956759524148 -2.330664997899 -7.720566964464
23.874844815674 -4.293470022457 15.157867037188
9.752259193944 -4.345023305764 29.473551332540
37.426765115941 -17.643952526423 -3.324940017044
37.409287141125 5.545995422591 -26.542873267210
20.657020529037 -3.726898863670 15.903352580686
6.122867979110 -10.803900068334 -7.845090787439
28.097314161054 8.911641042652 -9.966111207952
-25.028336243923 20.294488314328 -7.626042756018
-37.428234394455 -10.534594425771 -4.260740260620
12.647823719880 -14.979165154318 6.103069781173
-24.706964207067 -23.472495252464 -4.189296439847
28.202390922191 4.269909149534 -14.321280345923
37.353585342628 6.588621787748 -7.687365537409
37.516964854962 1.023575737185 -2.110235595287
-0.692037896703 12.759619237871 14.142004725797
23.535257784183 1.477677077693 8.968854732686
33.953956368389 -23.428199607084 -2.297270645741
33.926979982035 6.908069648381 -32.135549571706
7.225124889020 -2.676217650762 20.538085069709
9.343576397075 -5.047255116957 20.833941392090
32.917925751452 -23.457784036892 -19.554339692273
32.926068448239 -11.049252197285 -32.042065140788
-15.713401975835 6.679901255179 7.214084258327
7.579530188513 -15.118527029100 13.445545300128
8.211525504586 -14.957469348932 13.273868970256
36.124785849690 -16.002021327030 1.605131540158
9.960724694897 -2.760814576057 23.395713670027
9.423923848576 -3.372067991845 22.930326487995
33.930574488711 9.931594940128 -21.882224526818
14.236577834413 -8.776731889942 24.983470403450
37.465086416891 -3.352340206534 -31.750723338832
37.569282848206 -23.418411765883 -12.103094427974
37.517540487736 -10.027281408922 1.079537501344
-19.011535158479 23.531288868294 -0.407011695912
37.596890976547 10.098167953664 -18.673610359527
19.353944102913 -8.791282495908 19.546726620274
14.132687795360 14.934646401946 13.541627226686
28.213730921670 23.018741689465 -14.657323474240
31.251507582882 -9.365693437032 7.589954664584
30.796608842974 16.394896448357 -18.795729667388
30.339389061494 -9.975760706805 7.779498469911
20.859791840045 15.030140262774 2.740482904678
-10.061670204475 -11.288761742029 7.829233724409
15.987616471856 15.016726579894 7.894525220064
0.599103547143 20.952224429501 1.532657285257
6.645299137642 15.308634923118 1.749447864742
-23.970878544607 -16.164496947221 1.598289578026
6.462819588658 -6.752515258378 6.463150335739
-30.090592205554 -9.900236009958 1.664677720647
5.959669873418 -6.634194161952 6.892945825615
13.170496811018 -5.090227547975 9.717612716227
8.797166355444 -5.026898983723 5.277296958613
27.194493905802 23.373359383243 -6.066408576818
14.344480322712 -2.611050948445 8.749046700589
26.066574033222 -0.593805183564 11.239537941702
5.915646268069 -0.565011789531 31.105641801459
-21.730094941341 -2.281370893633 3.258115662554
-4.248385400357 -2.153863969989 20.530298167607
-33.944169429869 0.681508293589 -7.684203338829
-13.553200708354 -19.987552337971 -7.835622596495
-3.699622275209 5.612948538449 -7.802350153572
-8.812031828568 10.555572883984 -7.691530368335
-0.742988648671 -14.970843881940 -7.727521119749
-26.407946949618 -4.996435867512 1.527151716545
-19.123407050146 -12.118323883674 1.546202330902
25.493947249999 -12.285590469717 10.681335549274
21.278747342660 -14.925974025855 10.360786383543
-31.910497260591 -16.559873357710 -1.071405216258
-30.696501823660 -17.694523668516 -1.040804404193
6.962872395345 4.048463700837 19.786490874062
-31.748264921624 -16.780985119851 -3.356693611141
-30.717893320155 -17.870076448873 -3.422331669509
9.125204820023 3.204179650222 3.764334847545
-1.562927748736 23.422335547112 -5.531245160798
13.464227790181 3.426046149599 8.183485157916
-32.153320940807 -12.088148036331 -1.076321749806
34.456130403912 23.446939964277 -2.135494364960
23.539461902268 -23.436780917647 -2.252979736303
-26.192792441053 -18.199968462618 -1.118561757971
6.721121989748 -6.225593756674 15.690215597048
-0.636841209283 -7.993116306421 21.366000203168
-18.964730533428 -4.412307232343 5.309498033549
30.228690693717 -20.587949617987 1.686853122675
21.957757127457 -21.579478796771 -7.668122611576
-18.405613024846 -5.086435651366 5.308615957458
17.009353153361 -16.668718474118 -7.709602632314
-8.447590536221 18.103150771233 1.572668538234
-20.838358863012 -2.809163167342 3.941930870720
-15.045647230199 -1.052761531152 10.085090859661
-20.189816239926 -0.557671555789 4.811291371742
-6.143741729419 -0.578725328740 18.944187163127
-15.361814716708 -0.613975008711 10.016297411540
-6.490688398994 -0.767229302927 18.774801205444
-20.298801998415 -14.945684308445 1.656738218720
-2.302054552316 0.233790389010 22.488244094220
-28.985299845191 -6.025509035211 1.712578325982
26.690708204380 5.642316686967 11.962688938406
-24.058992438474 5.508896879097 1.589918946867
-4.964003373107 13.677913825320 8.089671767181
37.555600000205 -3.846284588672 -1.654786962539
37.481522218139 7.171570016714 -12.652365877260
26.570633239994 -14.362612674858 11.906555816168
15.866655518657 15.008109395122 12.198501451553
26.628138003545 -13.695693827053 12.192685276374
35.947350171084 9.863017138555 -24.131473367762
-6.412948808571 12.062232177713 9.899856011548
4.241931788227 -1.632376157435 29.180355284956
25.020043096520 -10.166443874548 14.078250991382
6.732501909054 23.657608881483 -0.074276324028
11.683348772350 23.522991294037 -0.174078206714
3.415728834214 2.161803898671 9.338500141733
31.857445321605 21.147207873731 -29.148571852391
3.841922400138 2.187704574610 8.791766793893
34.963121046015 -9.712593224058 -21.420693220939
35.040600008718 -12.794796447429 -18.455100991153
-31.011880719113 -17.337310893510 -6.656934599511
-31.640489223837 -16.982438568955 -6.651534025704
-26.837903251537 -18.453577994002 1.310136338920
-32.379680093274 -12.556201639900 1.024837090554
19.263841021147 12.568364892698 19.842806219095
14.487625287738 12.740346383889 24.608305997062
22.896465154735 3.018035709304 8.060212410475
23.016995845984 -4.776861076038 16.077518126435
10.638076038603 -5.032841923273 28.538309273805
25.064630354613 -2.306912940049 14.195911888895
8.426007595891 -2.103967720656 30.579701509239
30.942099984720 2.944171846759 8.258677259199
26.140893663028 -4.878874987496 11.511898201075
24.778422744902 -6.124355062772 14.363424409840
8.847936100926 -6.239835961532 30.225633086729
26.529571999382 -5.958886513397 12.685406293877
28.008998602905 -7.824997453824 -13.846801630310
28.170505689332 -4.957423560211 -16.460961812353
24.946102192772 -2.337814799529 10.102244032954
5.644168980852 -2.557938661814 30.126576628587
24.775342998670 1.640811533845 6.546427506753
5.158452218871 -2.023786985443 29.882381224772
-25.095776361071 23.391700705822 -0.999516780565
-1.157156561705 23.149221817887 1.398749340140
-0.178107874904 -3.382581496330 24.358370491535
-2.636528194777 -1.707037442260 22.398929883337
21.211310884612 -15.070793443415 11.608293159321
21.447821600117 -8.788322314160 17.667277567598
12.219111137308 -8.599310486519 26.956911662993
25.695978901179 -1.843480065328 13.060948545485
7.732248822830 -1.661141686962 31.479914151390
33.778533113864 19.996173326761 1.651529176769
-30.402684382019 17.821344245496 -3.898202627438
23.514961000790 -15.087543740618 12.544289076940
25.702108595686 -17.751448887221 1.615644654991
23.099208942789 -15.120498425526 1.464854676232
14.692932759478 -15.063657550611 12.047009054248
18.700115213522 9.812668961047 20.550986881133
15.180027708197 9.796066562544 23.842051252017
-2.323191390676 23.620203827854 -6.731469654656
3.792864942047 14.538854061132 12.692584811707
7.863874867776 -0.597093614181 5.031131180419
-0.348570738356 -0.412689227499 12.881778248063
10.103501968200 -1.065313308503 24.139270228666
15.304255629178 -6.494520390572 24.167924683789
-6.436722119815 4.602963395193 -7.855051566876
-9.828339612982 7.579929082629 -7.801136799313
5.526491754049 4.460051431839 17.519824529951
24.787434689370 21.083530914968 1.525338598850
15.282067561811 21.031785779018 -7.724271749728
-24.110862773758 -1.027572364230 -7.576465217992
6.528557514989 1.220742253449 20.596894335545
-15.536164067595 -10.044519531458 -7.742816152809
7.223046666227 -13.799250674231 18.613296362090
3.227230352861 0.524064013094 28.427317136079
23.279553334950 0.563758613058 8.600143326805
2.140773282983 0.127650212686 27.125013954602
37.549727164534 18.413241998255 -28.630409889224
-16.961899479005 1.523452932036 7.987382327276
37.466655202381 14.236415780707 -28.008399182581
-17.946452183931 -1.769756182823 6.963280897549
-16.636011487826 0.831039997764 8.400436859227
33.148597179692 -18.002959697670 -31.099502444112
33.433697494763 -22.396888157808 -26.663984562786
-5.992133997366 1.479740196741 18.913661324027
-15.178342714499 1.530537427567 9.826031943027
-20.062025503777 1.550815151444 4.894414097119
-6.348855141428 1.741329429911 18.580892290870
-18.409420644488 8.258670497271 3.331119574752
-16.937494968558 8.870046399453 3.756161957183
-29.006588850731 -23.107497896083 1.524318335060
-9.837338452660 -22.612810827929 1.634984394343
-37.357604927814 -14.853746721498 1.578109024950
-36.885734173797 4.575173635651 1.728678934543
25.055871302118 8.206537732096 6.152881732134
-37.419420301426 7.143071479560 -0.173270826971
-7.068486320819 -23.476642904084 -0.029196397167
-3.305448315408 -23.550228714140 0.520719084072
3.846056740585 23.394221365849 -0.033572564698
-37.536127473858 11.208732123706 0.629292322622
-5.694099274824 -23.354450783812 -1.743041400051
-37.499876538469 8.641761757045 -1.817255209678
-19.785380549387 16.652143056052 1.660364122221
26.721507722794 9.560592386873 12.037010825427
-24.031383387305 9.429710559628 1.640301997258
2.569710989074 -10.178137532548 21.969578874349
-35.828103715111 19.241700257616 0.854511553515
-32.444705205092 15.575983114734 1.004942869456
33.868563098145 -11.735349444574 5.400631813962
-26.296736622971 9.027505159619 1.471310162928
-24.503216076073 7.703905520769 1.657678760840
17.471142710851 -10.432848590311 21.504757635796
16.381502627167 -10.471288270323 22.881858618003
16.337294192784 20.428620717168 -7.747635127691
1.603572877878 5.187883495249 12.916578213003
14.526315229080 -9.986509697741 24.742328481689
19.357846248764 -10.144977936458 19.764243376225
2.802687752646 6.001498300463 12.487934782489
-23.608162828133 -13.704057974178 -5.563561062270
-28.105378038220 -9.635029515348 -5.535028198967
-13.417934793413 -20.529533548068 -7.702608131936
-34.520301497238 0.702673461517 -7.823524076395
28.158027738606 20.499736536005 -26.755585815131
-23.791361681238 12.885121915838 -0.691867125413
7.268673372639 -12.584365054929 22.302474020577
27.994297759963 10.827500461285 5.150549399854
6.954549526053 -11.684247643062 24.212325383180
24.668285397618 -5.430031777372 10.003209027450
7.070227921800 -13.861730236075 19.222316524217
0.568015736476 -12.287686089365 16.485240538305
33.927781955755 -22.373825509918 -27.139254598013
33.726688142046 -18.194084346082 -31.036723690990
37.361269648689 -14.251667868187 -6.154061381375
11.573276560658 15.029920865534 13.690447617752
37.574518836140 2.737002108663 -22.978828675665
2.739963538434 2.130137575829 -7.549636180353
-12.099724423282 17.084061826748 -7.781908441145
37.516056513796 8.115087442229 -17.626648379914
37.784658396837 -8.799513226244 -0.786548258633
13.736360576059 15.078795889800 11.604697210015
9.543035909275 14.762928855558 16.041397362968
10.542554143361 14.940973860154 14.862154484506
-19.372133642238 -4.856824646826 4.568164378832
-13.230067342937 13.133160566626 -7.682136762118
0.463705224160 14.922324619789 4.391270411006
-19.604840833194 -5.366019341699 4.163658277035
6.653933946097 -17.030328624311 1.681886743961
-1.037721020883 0.892225539590 -7.704095473317
-31.313613124298 20.798514264164 1.569471130132
-1.420111608399 14.930320042965 6.028137934562
16.793984241924 13.044994532083 22.236103289517
-30.042078667724 22.073737483061 1.590824249378
7.722163304093 -16.103763460593 1.758860355126
8.746169977054 -1.200713847437 3.488421698360
-24.670619977616 11.323082275356 -1.234191640461
-6.753588696705 14.225214037599 3.412974886944
2.925114790817 15.318679297401 1.583365579150
1.309897031013 17.071397256587 1.648642798553
33.463721244419 -15.482737355988 1.670452938224
-17.047189475068 18.691523212412 -7.775928787727
4.229901605199 -2.854721520391 -7.874140047221
3.480706659750 21.940331580646 1.648706847181
18.222678254222 -16.713231086190 -7.749834830921
7.704977555292 17.820600667198 1.730180299518
37.512756413760 3.903944680775 -16.380357213924
37.699478698247 -13.695487850561 1.015231391262
33.799290529333 14.929705251780 4.573686742372
25.780678044825 -10.897315019403 5.402179071427
37.587698941302 -7.734400727518 -4.787876468312
37.475875718027 -22.236912448252 -25.947166630356
37.480733876187 -17.184063007649 -30.857449687511
-25.610632079405 -10.335967093320 0.390222566259
-24.618909743774 -11.392413977309 0.380318970281
16.878658423906 0.580542687998 10.451700629848
17.419997070023 0.421066915555 11.018196433446
4.924984966045 -3.880460510361 7.698653859319
2.286208812412 -3.776629905737 10.243613035220
5.070956053132 -3.368664657527 7.692919427797
2.245069611834 -3.417679441978 10.302441090077
31.417996257791 13.433310734586 7.831128221105
10.276591208119 -6.094663353444 9.086201122874
10.869166332705 -5.405138224854 8.197310645713
2.812587864147 23.263575099019 -7.638424113662
13.348144814718 -3.311287253441 7.877764580310
8.722581909120 17.052331043012 -7.669337623170
28.175959010987 -7.204675818408 -13.461143731729
28.110013372209 -4.343373238528 -16.128147240139
25.491164703170 4.564223599249 5.781027876884
15.187707216728 -1.731748507761 9.407871200612
-3.409375276607 -13.919601730449 8.266881443554
31.705184861465 -13.597979462647 -27.251150069338
23.576299480999 2.042828492649 15.583494290851
10.214912760792 2.275961748795 28.687128924538
25.531418986973 2.324861623444 13.432420738840
8.237501005367 2.118568444716 31.050899182769
31.689142018890 15.105915240608 3.063193534106
23.008415547675 -18.562528836703 1.860336984860
33.160754048947 11.088815290109 6.075273872540
6.819140992974 7.268961031707 29.349843386230
32.756523861051 14.904704595472 2.109041435775
-0.286656517050 6.990693555389 22.198848967977
6.596792246916 7.619702021021 28.839839585167
12.321347988401 13.244521354369 25.613915646429
-0.982671621887 4.327567614634 23.063514581657
32.658888682625 -13.344497437349 6.501166247267
-6.986834734038 0.521290428054 18.071315404841
23.578310458025 9.873087695565 15.342136671890
9.710617491239 9.977208039641 29.331043049395
2.297752192455 -3.506572508305 15.368133961815
21.243812269446 22.585441537611 1.565518515399
23.621658336755 -19.350416987101 1.823214314611
8.275192921355 10.514711996506 27.153665873934
-0.186623764453 0.023200429420 24.713101626225
14.611613460738 0.635068227095 8.251204171741
7.784216295242 11.116020614883 25.854217264346
16.502102616705 -6.840210001257 16.802836847370
6.613838190456 11.131900979287 24.661814034055
-8.801664976543 -13.713207487898 3.164276186377
28.185049656114 -13.802318235247 -8.242137682957
-33.336029603539 -4.218922590709 -7.727038761868
28.207698747219 0.522132308394 -22.522653376544
-18.607106095640 -19.195652839006 -7.655824208143
-37.127228850084 16.472978648054 -3.187054477347
2.269809605953 -23.375324985543 -3.449059270788
-28.935236554581 -5.781817589203 -7.638847476655
-20.123215528311 -15.045742600478 -7.615498584730
-6.527134143596 8.762263311157 -7.839511201621
-5.392284557008 7.773609884268 -7.789699563715
-12.682135238496 0.616974902107 -7.748046665438
-13.572828249223 1.886546648149 -7.806679173956
1.148504185132 -8.788050869979 -7.593008574684
-23.070779693243 15.322989144642 -7.787836079908
-14.780415045982 -11.482397498265 -7.829393410422
-25.712600631440 -0.702709679964 -7.880906527140
-30.587426602457 5.583333486107 -7.663738691039
-8.666781830724 -16.570727977966 -7.775608636139
-25.641237291551 1.818366936001 -7.825788501481
-12.750176216782 -11.701781795804 -7.758917818105
17.485106353600 1.594514086296 11.333934777175
-24.535565818223 1.713184736111 -7.714408637285
-12.501586657960 -10.446517922814 -7.605970532921
-26.935723802674 5.626126563563 -7.640710739406
-25.610233456020 6.551157891258 -7.699001909933
-7.740216120960 -11.619998153871 -7.823638055613
-8.795240533330 -12.622660815789 -7.678552943313
-20.232986122671 7.358052608929 -7.799173520028
-7.176248293658 -5.991224426236 -7.610788418451
29.844023968368 22.734601902651 -26.517633791073
-12.680003298182 -6.030654868539 -7.813446598408
-20.270122755733 1.572914759365 -7.710411112879
5.924931848319 5.017923705952 6.591689181445
0.961024428854 5.115240107140 11.573896419867
19.853832394728 15.029099602340 9.422216732716
-0.290450738750 -13.192506056538 -7.702034363426
-19.699272856806 13.341845784094 -7.805268799226
-1.172798188367 -5.293209318673 -7.484256687968
28.157024264930 -5.338455194544 -17.080330651217
28.235578101742 -8.123391399574 -14.384881402136
-14.706619615795 12.925118182145 -7.802314715119
-1.543093411221 -0.533112898722 -7.783867885413
-15.190364465716 9.575576349498 -7.667537966341
0.933563563212 -0.997116671595 14.828749610359
-4.843449154933 -0.837598079834 -7.857563767348
3.889681458392 4.355711735244 27.966442992663
-10.583264806847 -2.298114648984 14.384339740345
5.988783543857 14.782274689376 14.334174969645
-16.340798221902 23.361046094834 -4.961078419092
17.111070208318 -6.944554408693 17.338618403405
31.839781278985 23.361606023273 -17.258232584657
18.988904166077 21.956182063522 -7.812288624822
19.225675900297 1.097279531579 12.842303126309
-21.760461410182 -2.937272971321 -7.680234460503
-26.435874252015 23.498314701412 -2.763309233792
-25.186910053979 23.274435754659 -3.961508188862
8.794134057946 -2.317720750581 22.442384748410
18.643715378249 -4.094954191041 14.061975524183
-25.723713158504 23.357871117391 -3.349040059755
-17.008668063121 -7.719954362308 -7.714805912806
-26.818937605284 23.415055705157 -2.232999419701
37.425831139276 18.660581452382 -4.886003696907
-26.896272948488 18.380857352530 -6.996620439818
35.600455964530 14.636296186845 -18.391545603782
-36.328857297563 18.459756785561 -3.315893453343
-6.218610567947 23.370901981197 -3.156634498857
12.580245555948 -0.178453034104 -7.782773171944
-8.695225111521 23.437281585071 -0.546772838021
4.836360657611 14.615585354285 12.523016702360
6.936934527403 14.873987872357 10.220461345014
0.156874068365 0.507282223375 25.244441751590
14.311492569702 -15.059018753029 11.475202929770
-11.711155643146 -11.393281648692 5.833004219570
11.959108523573 -4.335875991076 23.904361283432
-23.774660524937 -14.958896885265 -7.268926152334
-28.911062612357 -9.718214608009 -7.118714410967
-10.765673612292 -20.820303545815 1.608686406820
-35.092030474365 3.309282147906 1.570152303033
-19.571636670008 -12.181335015694 1.506178121070
-26.278050550912 -5.522320735590 1.775989044600
9.289365977183 12.030606221403 26.150469143388
9.912386599324 -2.689952607114 -7.724062162863
5.402087619330 -7.390771915001 27.566808245875
35.648059891732 -21.420039925439 1.637280287046
-9.279218041072 10.087272674838 10.289131151488
-7.153979313171 11.726454110546 9.752380564041
-8.041761573973 13.262992051477 -7.740189143598
-0.962152594890 6.131928339291 -7.720249183698
6.688187363441 -21.614160253511 -7.661923774887
35.977058597044 -10.315594862733 3.135196168490
22.266889937479 0.110122880702 15.784166648379
2.711774880402 14.055073141477 14.048150581119
4.837358465511 13.991388740533 15.920795217415
-5.915072887713 4.897960259097 17.840879554799
29.458673203130 -15.981288310855 1.617427979994
37.552199600606 18.984130300733 -6.536639053603
8.614799125657 14.773888397237 16.272578506053
11.027871477965 14.848147197409 13.718176988245
21.038889942387 2.547442159137 15.369533755908
-22.315585125914 16.603647715827 1.622015352784
14.856534208771 -2.612515189350 -7.718333386117
-16.328617578985 6.207665391725 6.962936988857
1.394055363379 -3.709949423727 14.046591826343
22.930317626389 10.133328506214 8.212119770901
14.178025154261 -5.845654415975 23.968289244953
28.498848103353 -23.385041978040 -14.767362826710
28.549556685177 -6.253492915197 -32.177594695503
-28.998359502821 3.396690862616 1.764427918969
-11.017207652907 -14.758964594439 1.622161745126
1.246555727224 -10.378491857522 20.418442369003
-6.537891487728 13.466510024270 6.529158788815
23.270104099379 -13.776708896954 8.012257018412
28.207555307291 -22.523809618538 -25.501866697972
28.259602072388 -16.767037346063 -31.348261865886
-37.429002063539 9.346913434570 -3.144818459208
-11.093301887304 -23.337887771663 -1.489486791731
-37.332153303073 3.200375446621 -1.720607713805
-5.023659972875 -23.623129085274 -3.430402004073
3.785750637003 23.481407158043 -5.443747289451
-8.781244701264 -23.589164482158 0.351623917601
-37.571492946138 5.626143637907 0.497276229630
-7.073996273630 -23.299280958033 -5.552791524173
30.343615607770 23.318773098263 -14.061921915136
-37.662824956780 7.258215885122 -5.431225478245
34.885905283155 -5.885122271528 4.015678598355
-22.511109840319 -21.385206148862 1.575793746535
-35.656064366424 -8.188515211620 1.587418613143
-37.215260126304 -16.042733446116 -5.794142524787
-30.006596452273 -23.119047907141 -5.691953131077
22.645438789427 9.934564629026 -7.908226694701
17.686152705721 2.699535992187 -7.777319107236
-21.850304440372 23.323531265383 -6.123927542518
-37.138323303374 -12.777206936048 -7.861483865340
-26.898570338882 -23.173054827840 -7.707334490684
32.232948661934 2.948603721796 6.949199856991
-32.268461962044 12.688385359641 -6.087702733471
3.222083153652 -23.424065607281 -4.973792859995
25.743077199992 -14.877307093845 11.405943902153
8.858542855762 -8.792283779586 -7.518755847222
-22.947432064446 23.262588044082 -7.610374702487
23.093610334422 -12.687116531610 16.018113155613
-36.767048348652 13.792058459425 -7.854524132491
-0.663251590279 -22.495311670493 -7.954581821774
9.591255107141 -9.247026669147 29.496637061510
23.828845854982 -9.299417157834 15.055749111324
11.468678066373 -10.599158246592 27.735749660749
22.483551561941 -10.451443937486 16.768201467631
28.208045138718 17.100951694685 -16.009683663620
-9.111552633168 -4.283987082657 14.945036435570
-23.474095554075 -21.378775843588 1.632775188880
-35.683666949467 -9.460708403840 1.712999335113
3.714727365709 -14.917852551452 9.767422445629
4.620322435101 -14.931498810390 9.326230241264
-7.032903547184 -9.768319610113 12.869861773374
14.337395142110 14.853453733130 8.570484913197
13.891527540707 10.972467534767 -7.552572790804
18.739126412548 15.150615882519 9.768643771581
-5.900357751287 20.169781727448 1.703445473135
29.437635396993 17.421720714582 -19.649866947252
-20.799801346255 23.255893393969 -7.796182087500
9.005079964535 -6.444567812881 -7.619925470201
-21.802719155333 -23.451327383658 0.144728472927
-37.542329683664 -7.698306620686 -0.014147564545
19.380866139086 -14.923820464198 2.122279106775
19.694730866931 -14.971231971925 10.656373321883
18.928841818598 -15.028569414800 11.082217961026
29.496762970416 23.452373756643 -1.119238249481
-18.146035423979 -23.380774009028 -0.690494422468
-36.615148179232 2.778212997491 -7.636035911111
-37.350970854055 -3.953503781787 -0.462341010130
-11.688085491237 -22.684723463051 -7.771023567321
-14.241177075801 -6.602455655932 8.778196153741
-13.751658404278 -18.099528295445 1.656318901214
20.212647390565 -17.142172170649 1.565421716703
-32.269896023761 0.619544973724 1.659526340688
-27.496665382844 5.491404800205 1.547857827996
-29.778174344702 -18.031329228498 1.083264705204
-32.510088625393 -15.600879102533 1.036413354785
37.548247738631 -10.119143084778 -31.286906182763
8.226254579989 -17.696895292319 -7.750327684671
-31.604882465809 22.793509276825 -7.656401881498
37.507417971207 -22.723366060934 -18.613838609889
16.993722179076 14.970235098307 11.534758558778
-29.141003573354 19.950600503650 -7.837405922093
5.410304881350 -14.760601555016 -7.749258727951
-7.187708973092 12.128814572231 8.840467369453
-6.532793956502 13.293983807872 7.498358053083
16.448583357224 23.517390685051 -2.319905415398
12.842855324695 14.916110825493 16.466622274412
10.827922279833 14.795338854876 18.087690512937
-24.412326294101 16.717858852540 -5.000246985790
14.676562736672 23.442318261832 -2.926563628471
17.055526112029 23.353057338155 -5.089182377931
5.308315899250 1.157070470051 19.403015354621
29.524365147777 2.029981916413 6.827150647800
18.001085998291 -11.055721068768 -7.820137428284
13.744151324826 19.996713650422 -7.651255740353
13.093225035267 23.364816628219 -3.748425591217
-17.669757705154 4.836762927939 -7.843784642153
-9.453450563398 -3.208149573554 -7.671005555752
-16.027646762175 -21.961127363140 1.468882160994
-36.000310876870 -1.430554767346 1.691534578893
31.732327786587 -13.075092185746 -18.352477258165
-29.991544187422 -18.020277767872 -5.603445847475
31.943146535297 -9.759508769661 -21.896938695549
-32.281183784005 -15.936758348283 -5.584228479020
29.917933937628 -6.158269340738 7.607614501840
5.129954750423 5.772288292176 15.341187860569
-8.629572877539 -20.373262135965 1.688139425345
-25.554499142351 -20.811404954063 1.574943146708
