0.323430354792 -0.005185243266 0.457543652312
0.414720938628 0.226204617447 0.508042102672
0.432703788590 0.213154327639 0.457958643299
0.332416193883 0.327054294684 0.506633217684
0.412485609694 0.280177914680 0.448340746577
0.349514808082 0.097554764667 0.486718807468
0.367985783955 0.081639907396 0.469855152629
0.362152231805 0.086195878526 0.522236627134
0.374109537963 0.116838842013 0.459671710218
0.301882427350 0.205804696158 0.569130284178
0.396917690413 0.145134212135 0.480012148559
0.358208673340 0.193823331944 0.459535366748
0.403677045037 0.159219546671 0.486036249714
-0.378881102384 0.475185957808 0.475915671185
-0.360061078325 0.491344288596 0.507564521137
-0.359768483397 0.460800308694 0.544738785768
-0.382301192042 0.447728835025 0.456999939744
-0.338827389600 0.390035873590 0.512387796024
-0.375848201137 0.459676841499 0.506911441449
-0.327580303966 0.388732135406 0.496806204567
-0.360265930794 0.359364579939 0.487831996795
-0.386679427712 0.414205934293 0.471082846713
-0.339466767759 0.010039048957 0.467720439526
-0.323688846437 0.098226416353 0.535794117224
-0.456009206750 0.019799309458 0.474779557385
-0.340468951868 0.015745251537 0.563251196164
-0.370061160020 0.033934217192 0.438236820759
-0.428795531812 -0.017707546357 0.494584497828
-0.341324951701 0.127638134093 0.488703248783
-0.401899847492 0.089681752193 0.449772455920
-0.376101717059 0.055547829599 0.436096450448
-0.339282224067 0.144822647960 0.458289937146
-0.362752213478 0.357059418068 0.511735192899
-0.316642122481 0.314572995024 0.495184728987
-0.383853702725 0.322164300116 0.513187610419
-0.373021687467 0.247776923049 0.504876935000
-0.361246092394 0.277323103700 0.444594155963
-0.344769139905 0.216983759539 0.496115169131
-0.382859748513 0.249346784725 0.469865356540
-0.336219437167 0.160189504606 0.458062792804
-0.317124884552 0.170408856814 0.487472128195
-0.357650773969 0.187596497708 0.446945291159
-0.370028882198 0.172452256806 0.547317703970
0.282431002638 0.538188168472 0.527211489360
0.314537925105 0.514635952174 0.516098806759
0.297924930755 0.505550286735 0.547732901271
0.269377544505 0.533318921946 0.554946385711
0.250269334311 0.508702320782 0.500586812212
0.273599449944 0.549501168447 0.555741684995
0.132439633288 0.563207049552 0.576501066284
0.242694126819 0.561675275426 0.527867039950
0.144084097594 0.538407685841 0.594505312572
0.199051378963 0.488202043616 0.528886206212
0.188675330350 0.580244546507 0.533334585450
0.196187064038 0.568400328572 0.457640673219
-0.177427640421 0.468755804713 0.505688889117
-0.223988060035 0.545718944336 0.530521499671
-0.224246125673 0.508334407049 0.525541799995
-0.138783409718 0.495406893373 0.542669117688
-0.180845179313 0.541576571658 0.512193317658
-0.279434804438 0.517217280964 0.582384742411
-0.330300041659 0.554044332232 0.546897143633
0.340314939655 0.541063676640 0.629393423635
0.314409205321 0.553543693119 0.580928653725
0.302675199792 0.525580410297 0.640417685857
0.315296203097 0.541924192728 0.562607958639
0.286232455492 0.555035050600 0.576683040803
0.304918491635 0.551738420978 0.538037986996
0.272213918779 0.547514064308 0.587390961068
0.267118452656 0.536776293738 0.599948245280
0.255351871074 0.505691944650 0.598991808205
0.216242907642 0.499640926415 0.551024773002
0.219013146653 0.564285724662 0.580715478771
0.264643393265 0.449327566329 0.572852092325
0.222739024245 0.476169540050 0.618587521387
0.200243289448 0.525906017039 0.621659682276
0.159801901753 0.521463782841 0.631189846455
0.200086373592 0.527924140618 0.569437138771
0.144538207297 0.566301502070 0.655776870900
0.166773575453 0.526341067357 0.552586466780
0.214720052922 0.590843446725 0.553924224780
0.214036644785 0.514676773848 0.622835775432
-0.161404559238 0.526126939293 0.633069124285
-0.162960573247 0.553566865699 0.553637441902
-0.181471751465 0.558464136480 0.598723290518
-0.180498654435 0.525195319579 0.527643437053
-0.203374316017 0.488013134165 0.530322742669
-0.143662936378 0.571915153435 0.538735777095
-0.237285827826 0.473569356218 0.590754539651
-0.261278941678 0.537005893145 0.686118067841
-0.184676116205 0.495892682106 0.658054785211
-0.260015431856 0.540628423300 0.588667332332
-0.263291065963 0.551642325941 0.689635365440
-0.281564804370 0.560754329447 0.611385230594
-0.298560521974 0.516313338788 0.568622174995
-0.236538012250 0.629992883357 0.586091854658
-0.346988389199 0.507006689502 0.643422415945
-0.249118257872 0.516302903923 0.570639887344
-0.346331396355 0.592652983494 0.592222112240
-0.264663242639 0.531832534167 0.596976554851
-0.223245162893 0.542811159148 0.610053328790
-0.316222139102 0.543520041364 0.533534283469
-0.316862053308 0.568740090050 0.480427805934
-0.324425622938 0.470247457320 0.533068773487
-0.088361615445 0.513818067455 0.483446533742
-0.086815316193 0.499753056169 0.559155964323
-0.112445327415 0.518184354684 0.543451448681
-0.073716036543 0.511257232627 0.543916869909
0.188467216053 0.505973747486 0.549426835484
0.198353211612 0.511066811650 0.600541687135
0.129231753736 0.512731991038 0.604335001708
-0.196389019748 0.517644029319 0.580687414237
-0.245325303170 0.539125942857 0.612651128816
-0.210146442114 0.514571134316 0.562546666256
-0.094368411594 0.494012087321 0.568366338592
-0.140234422897 0.570581715010 0.610732867208
-0.180960797838 0.543578307004 0.519062316904
-0.079814477949 0.537977171427 0.572912379721
0.099437678385 0.507164471063 0.501669724096
0.121024171037 0.517651317313 0.553426145068
0.122133290248 0.568965682280 0.570366329490
0.335855957668 0.503768034108 0.500561848424
0.369581288287 0.484610243665 0.511726102512
0.355542143718 0.500241342645 0.535146862299
0.327914938014 0.529400137243 0.572978744341
0.313761167498 0.481188649755 0.606352901473
0.345171538738 0.479146420170 0.590308328019
0.376346891654 0.526599118982 0.646871534861
0.394527053617 0.460904260965 0.603114129415
0.311513787288 0.524847488449 0.543689441204
0.363722277319 0.417593812709 0.522906207826
0.366929498042 0.470465383067 0.504825177901
0.348171393364 0.527515344557 0.496696561974
0.372049200620 0.460540028531 0.599975010532
0.381078202179 0.456556992357 0.572850848747
-0.369444803084 0.411863143289 0.511630480461
-0.412619662247 0.451743343637 0.510890949583
-0.381903896335 0.489707227063 0.510755626400
-0.348822348554 0.513600427145 0.559088330642
-0.286444734728 0.507806334541 0.531770212054
-0.314220867657 0.480322308489 0.534788589439
-0.367532356098 0.545480622649 0.538831997008
-0.261028199132 0.454472159696 0.586520078069
-0.333167949222 0.498829541962 0.646609482208
-0.326423956728 0.481108299177 0.600100258859
-0.432823166099 0.450121984792 0.593595268384
-0.294887653532 0.522175216287 0.593364398814
-0.395648626310 0.419914062342 0.607137570302
-0.374455522529 0.448188793908 0.568587776275
-0.382579110581 0.462483737882 0.554937208703
-0.250063475067 0.511776560106 0.660384037804
-0.201609427313 0.508988146043 0.598857348168
-0.128985318677 0.511595796226 0.644227241593
-0.116696304490 0.552091302324 0.660388379590
-0.136790989328 0.547845064763 0.707418558039
-0.081027170707 0.541388579405 0.589611847841
-0.080814658237 0.541357420721 0.617148579865
-0.143838701182 0.564599863867 0.588698084336
-0.098103735784 0.488372821611 0.614368155057
0.065916574938 0.572990119983 0.599732592976
0.085407500021 0.561696205897 0.598964194840
0.074801479522 0.537763201036 0.561867301015
0.096071921322 0.562277559248 0.600090575962
0.101664159942 0.513116443731 0.641814491392
0.078799997874 0.450954713166 0.637957724495
0.119415937673 0.563729080127 0.619784654369
0.137865152927 0.528551938645 0.559957788081
0.145502361296 0.479209124585 0.624653743592
-0.005342199058 0.492025501101 0.675820404851
-0.038244269682 0.502802005670 0.653428928176
0.016093060700 0.512856677594 0.600787393785
-0.023649252236 0.540244318742 0.648005243715
-0.020766872868 0.538316317495 0.532670457943
-0.049021768227 0.053076118878 0.369209608792
-0.047162192185 0.052768182209 0.478697779346
-0.025161644900 -0.017458334992 0.418744967950
-0.054014161798 -0.042506029766 0.438860743819
0.068200197778 0.015458531949 0.482911264575
0.050152440001 0.010550116796 0.456177043645
0.106050664093 -0.023471683161 0.403496558546
0.160957292819 -0.026888790113 0.394028413745
0.044416576725 0.039335208143 0.437793495261
0.113091811444 0.007841038095 0.478241608337
0.124653049392 0.079809392343 0.408761499732
0.053502216011 -0.019659194130 0.393632446676
0.103717278503 -0.018277034847 0.447268004684
0.052501820236 0.027265230516 0.422008937720
0.197078179967 0.082552211316 0.486537665643
0.091257447731 0.046131148288 0.415149111557
0.168685709053 0.081613822064 0.396827800358
0.149738251574 0.189476220061 0.399633243384
0.261559494105 0.190077936351 0.464586568476
0.155502877948 0.093404883478 0.479778617228
0.104832962433 -0.000052443419 0.358293544242
0.012255001229 -0.006167921814 0.500369695723
-0.143909434128 0.099968053330 0.404105173179
-0.135407875750 0.100898354466 0.431136400838
-0.144087382631 0.153008540880 0.412363968002
-0.122595575537 0.136895578311 0.460514051691
-0.110569096659 -0.036708474778 0.380087200413
-0.122825263217 -0.004801826268 0.428278967922
-0.117401436130 0.038416294613 0.422075275220
-0.084180204380 0.012931124039 0.408822912525
-0.066599604945 0.007741466932 0.430901943476
-0.111096152641 0.126803119892 0.413974888481
-0.183939042144 0.236690833539 0.414431733857
-0.253264536682 0.189975989697 0.394007285314
-0.165893413586 0.165698598682 0.364540550392
-0.196132190998 0.138695705813 0.368787490165
0.067036020806 0.331100620587 0.446123710625
0.064743465974 0.276309391478 0.422031667661
0.010533225410 0.376396825751 0.384912020897
-0.010751343072 0.329789639328 0.400336925669
0.027524990463 0.347048164496 0.412884205259
0.024058174419 0.353092074701 0.464761615517
-0.046631802720 0.398638473430 0.451378493958
-0.041672094873 0.322413370410 0.464998619042
-0.032317851849 0.342345554252 0.420674746383
-0.085030324786 0.317539396869 0.446159188386
-0.101499619450 0.330697038217 0.413266485663
-0.139658185278 0.303623044283 0.443198900623
-0.116438321819 0.368469616260 0.458701360231
-0.206267007966 0.274552125375 0.461439015265
-0.206796921293 0.232435323429 0.444351749651
-0.129215281420 0.171875719681 0.451022129654
-0.096451810979 0.289383918560 0.455145587768
-0.140272039575 0.227004943165 0.389884775183
-0.125890488301 0.307900451400 0.475848166341
-0.002425800397 0.373362865317 0.371596106573
-0.030397600130 0.371289666712 0.411861886583
-0.033479133595 0.373862297642 0.428735284726
0.145116397130 0.229965255727 0.454329834281
0.128117664143 0.242163786313 0.409315075980
0.152483677530 0.258767472821 0.436503676707
0.168053569075 0.299045550327 0.434735332742
0.106696584173 0.251888707021 0.366932314943
0.084299812509 0.352745937603 0.411311845361
0.084479906317 0.341190325361 0.471771023775
0.049498024132 0.287462344902 0.397989325923
0.171843597753 0.285960404964 0.427616705929
0.208066796416 0.189001886603 0.431859353610
0.173270875354 0.193041692536 0.479977690267
0.179942502421 0.196955397822 0.398237293032
-0.353817146822 0.487454942501 0.493963246701
-0.395510737270 0.504207083295 0.501454184006
-0.409099348422 0.458683423651 0.552414712241
-0.356976185171 0.421795682101 0.538427078023
-0.380049674485 0.409548500915 0.543771662044
-0.312084918930 0.376416913317 0.537344694520
-0.292411118810 0.299442517837 0.499721149148
-0.393460188341 0.348027386573 0.505469710407
-0.368557077061 0.216616645305 0.515365920974
-0.387072530670 0.112562150738 0.552785284666
-0.357418856571 0.269746724549 0.571130456336
-0.339110889831 0.195650401720 0.545660450562
-0.379881551951 0.181808647725 0.475807719945
-0.379313367380 0.231650511098 0.559105855733
-0.372497475180 0.191159155424 0.578186800640
-0.401116830626 0.215366867652 0.637190180724
-0.381718340993 0.080101041628 0.540482377002
-0.378777010559 0.063907416910 0.522522336308
-0.416926041423 0.057666570512 0.558827577037
-0.428856154297 0.032247885697 0.496433205539
-0.396371648671 -0.006991164677 0.542653373879
-0.436740276192 0.016348209609 0.530956096022
-0.362196905696 -0.010601611270 0.451206058256
-0.374178009610 0.408152030805 0.543146625426
-0.399748909600 0.423601039921 0.545906716756
-0.371764404901 0.390743400957 0.582187342048
-0.383944606764 0.346742114373 0.536428256825
-0.405092984754 0.374126431273 0.516583162143
-0.357958327256 0.338143631352 0.600798753561
-0.363996664331 0.251322399174 0.591121945559
-0.369830339495 0.226003870913 0.564735382382
-0.348677450962 0.198276946345 0.589927978033
-0.409970378477 0.201454912625 0.533363999842
-0.352989669741 0.274702259557 0.518025460553
-0.374838506943 0.224801376163 0.474667544926
-0.364130019885 0.225680828885 0.475910462390
-0.383340145026 0.226422706726 0.557272473484
-0.415365724395 0.135972943076 0.510912450335
-0.429601380628 0.136443922768 0.597703926071
-0.409470501670 0.068681299521 0.575730038401
-0.424992985030 0.064764362588 0.536846293633
-0.354279810712 0.105613936687 0.618650341298
-0.378824509981 0.041799374595 0.561776083520
-0.430864121927 0.068410665983 0.542061849944
-0.360158580845 -0.046568369759 0.564838523391
-0.371090006384 0.024807653885 0.545803453194
-0.414168066410 -0.037105904903 0.592270984201
-0.366918164591 0.008132582147 0.566331243356
-0.426935266330 0.278596750471 0.529126501488
-0.348286527104 0.310856661836 0.532857915359
-0.376713111501 0.354762701041 0.510368940221
-0.404731573161 0.142737384676 0.512795730963
-0.420800772712 0.139691955572 0.502386189169
-0.395987893062 0.059000535596 0.561558960063
-0.352223595756 0.135882158182 0.569789198985
-0.335990273715 0.287484558034 0.566514318717
-0.389803152595 0.274240603808 0.499458787858
-0.427100036101 0.352821224314 0.571998038023
-0.346503764389 0.313462144199 0.573416071477
0.053550288733 -0.029942408137 0.494591940262
0.032280762443 0.002602208299 0.436903952170
0.089291015706 0.007109591591 0.426912491400
-0.067998664704 0.026808719302 0.442778365845
-0.073835693428 -0.015494991999 0.411493040141
-0.068805597851 -0.063211604636 0.425533798588
-0.110390321570 -0.050959381158 0.431492075044
-0.287750863187 0.470594676817 0.421655480484
-0.299542314779 0.480990699642 0.445925947302
-0.209842906059 0.447723006212 0.479064435490
-0.339068043768 0.423263873999 0.443377123505
-0.175364082343 0.432815115503 0.492472745814
0.221218363915 0.427642375240 0.455807277348
0.246652961031 0.509574443443 0.494978908394
0.183191270573 0.433726563972 0.446191856502
0.259570231178 0.412072007850 0.421963238966
0.339996266829 0.368266062536 0.445508139651
0.263945247497 0.406489771303 0.445661389691
-0.000011312866 -0.028970409764 0.453463404726
0.021964768442 -0.063669109202 0.463851888083
0.018787816974 -0.050151134347 0.422401194026
0.198991022856 -0.010865444544 0.425246422499
0.133046347195 0.048903021573 0.434514393216
0.189638096961 0.012883141485 0.461598565533
0.180413958866 0.025279942674 0.480717297685
0.145310741487 0.089179603357 0.428356674918
0.133697511571 0.086192811491 0.429499441172
0.191051017866 -0.043029972437 0.520340316342
0.112502434704 0.023157997947 0.507470853267
0.069356842504 -0.056097028802 0.404192094072
0.069936288805 -0.034089269008 0.455714163047
0.120014640545 0.027178307240 0.428105865851
0.203448743740 -0.007507753629 0.461485998744
0.034118643341 -0.026258642086 0.461718957166
0.006559738393 -0.105500948200 0.442176732367
0.014591971335 -0.065819347559 0.410445069826
0.227179816646 0.144360478253 0.406505264045
0.206360191125 0.150744745969 0.465631534669
0.216714627122 0.128855524137 0.477828393783
0.196672133245 0.151293939792 0.501581598850
0.216655040610 0.133338550252 0.458237364516
-0.148788328957 0.079912931308 0.463784770402
-0.171572618064 0.135013795770 0.466895317767
-0.188084997403 0.104814468879 0.431588640559
-0.142607566964 0.027406140979 0.450490258834
-0.169131286594 0.010249622882 0.439306327199
-0.173490296338 0.033141537184 0.456740304792
-0.140237703528 0.040583916799 0.459318590530
-0.164591398459 0.030190167433 0.508889284175
-0.161583622706 0.064620206907 0.479553174293
-0.083695607674 -0.005306682629 0.453630377600
-0.137189552199 -0.100746990241 0.442177107292
-0.150398649587 -0.011307481684 0.400348208961
-0.099305524657 0.008608271575 0.518371319983
-0.112908900366 -0.024404909877 0.441380085272
-0.199053639670 0.248607754337 0.448298184490
-0.328714347436 0.181931833513 0.399237635309
-0.222262884981 0.146266967858 0.451152745399
-0.201944411110 0.107233652346 0.466535471894
-0.215632442774 0.107660916036 0.447203395501
0.196254384815 0.141314997261 0.475509257649
0.129181162346 0.236582886606 0.478449847209
0.160551373110 0.256685668901 0.453608634937
0.062923534593 0.347462773573 0.462053366665
0.024134046675 0.392388619339 0.440989659401
0.081516520502 0.422281016678 0.465311008535
0.018083780837 0.444138010554 0.452315053313
0.039165366090 0.389326199767 0.484036543094
-0.078160118562 0.354881797340 0.427266904621
-0.102193158767 0.349156951856 0.425790644091
-0.060533600458 0.380507164275 0.416337082081
-0.096652043985 0.296167457608 0.423704527386
-0.102470804669 0.318088916494 0.466044863742
-0.113376237128 0.373598216073 0.398619864160
-0.122931147023 0.353065785186 0.431522876687
-0.032817584063 0.342242881835 0.418139064587
-0.047743108191 0.431930030267 0.469260924674
-0.177287091092 0.293419682520 0.413823438581
-0.186221433572 0.353605600130 0.470191519413
-0.167261055788 0.305829405980 0.469983835092
-0.151456618641 0.257784272867 0.424820191892
-0.173895475856 0.270211914487 0.427161453150
-0.136522398024 0.191474587987 0.443225725506
-0.249840881422 0.301605593797 0.420797816116
-0.073579890591 0.401122087437 0.397322581531
-0.038816163308 0.348924720698 0.463084492680
0.239994637133 0.226213950665 0.412785230432
0.221900559769 0.239336738152 0.443639955939
0.229491020227 0.228866041230 0.483458671597
0.189081927822 0.396342060909 0.504053066830
0.160492369924 0.284970688754 0.400012333700
0.123668922637 0.354627095192 0.409043030758
0.178680208243 0.272806586997 0.442874688421
0.125462310700 0.345840470256 0.485088026716
0.141999272489 0.323854823844 0.449943639908
0.087378846635 0.295400073907 0.471136235793
0.183699485919 0.291609057357 0.434749417156
0.171016391913 0.380697907889 0.448901129296
0.138282727800 0.321693779218 0.419607252299
0.096361377078 0.372745506948 0.457820774915
-0.284687059380 0.003292994588 0.509124747173
-0.284351980778 -0.040047786409 0.456010526948
-0.270294545109 -0.024269463676 0.395028664462
-0.261563338798 0.047081827133 0.384732277078
-0.286601669697 -0.021532180489 0.455793051993
-0.295111088222 0.164871529160 0.481674640296
-0.278555523769 0.290147013138 0.424902116725
-0.306079252982 0.148159740801 0.472836463867
-0.299761252748 0.219273357772 0.443274898327
-0.254783064120 0.184664010113 0.460227629129
-0.278225976276 0.241183085082 0.493642320355
-0.245956408941 0.160334569035 0.393068347150
-0.254262690485 0.275837054001 0.428372830279
-0.211378171854 0.350527657488 0.485959100775
-0.282567210745 0.376722788777 0.454305037809
-0.248175153293 0.334244529058 0.448000219391
-0.247198486592 0.354040014261 0.477434659092
-0.324746570593 0.452522235582 0.451137945203
-0.256340618107 0.407834830564 0.467816979869
0.385168663181 0.430555129603 0.393908401296
0.308892982230 0.437477516664 0.446578377714
0.278220097169 0.403425217880 0.469804506648
0.246849704397 0.300997413585 0.417339679215
0.210232345178 0.347472795479 0.420928080764
0.280605540859 0.337076034268 0.497756018719
0.240768342615 0.284889746046 0.440723753987
0.268174714919 0.273263659668 0.452468556037
0.288949554579 0.206426471911 0.420926779127
0.306891610349 0.166991799462 0.394312355686
0.311929931104 0.091296125439 0.459264750950
0.278386516234 0.171888991476 0.416416621806
0.270143315176 0.192668675428 0.479878121161
0.240922069206 0.025078400642 0.398859744006
0.287807095399 0.068659574659 0.426108453943
0.265176628280 0.122275980229 0.455633442155
0.263262511664 0.086097958569 0.420417275361
0.288106695518 -0.056082009268 0.450383829695
0.319022402090 0.062302885496 0.439779777617
0.236042416657 -0.011518893939 0.471651187776
0.345754584736 0.056291820098 0.401162074385
0.234950755078 0.370429026574 0.450251237419
0.238975932262 0.391205983538 0.532295891137
0.294643666878 0.338973614856 0.461513820150
0.243600239563 0.360710747792 0.409454759213
0.275723939121 -0.081289329883 0.469643425508
0.237217561802 -0.002851131778 0.478119578125
0.202953271858 0.057375406763 0.463718425498
0.289107562702 0.001915462989 0.467455450711
0.185330187603 0.021658270732 0.510128577886
0.231984409398 -0.023790380802 0.411875736007
0.270148344217 0.088096081473 0.424276640123
0.271569878131 0.009660309350 0.421185611597
-0.141891441417 0.488119589016 0.453778642942
-0.181595853821 0.446956795644 0.450453423449
-0.209897835272 0.438172916157 0.474152896100
-0.209835778077 0.341488932102 0.442625196209
-0.209694905914 0.319092756973 0.424857892333
-0.234339925941 0.402128739687 0.471672161338
-0.226759562356 0.341240665747 0.443032136789
-0.166172006524 0.000790249714 0.446864383369
-0.204712126842 -0.058222676623 0.439027828484
-0.202132788799 0.057511297463 0.392521880103
-0.229067131400 0.016552890437 0.478293709935
-0.183589817802 -0.025193378363 0.460715010637
-0.170516749061 -0.016939791574 0.437562289225
-0.300970496497 0.005815777833 0.519497660710
-0.295361071812 0.011079690071 0.453882006619
-0.196732048510 -0.054423161309 0.439479138969
-0.260217294013 -0.010706001454 0.440643168659
-0.229918570667 -0.018651093328 0.435347668131
0.246696236763 0.289454203799 0.385230669764
0.292492190524 0.228698698020 0.485594656515
0.232376518554 0.204447836634 0.403265805548
-0.120319175454 0.358281792581 0.516989752703
-0.236380203139 0.405120184739 0.440313113566
-0.135264407704 0.392042753290 0.416319847523
-0.021208841136 0.378926051060 0.437376535008
-0.046746193487 0.401700853418 0.482406608601
0.016258273814 0.488087998720 0.460999649061
0.048278346495 0.414392979517 0.398888343261
0.035887740862 0.419035836807 0.490457568942
0.056361930454 0.405762856460 0.404398342964
0.096485531109 0.448718042760 0.414742933364
0.133458256630 0.441322341590 0.420983863937
0.087400049185 0.416950739824 0.464828191919
0.132465811906 0.393819067262 0.510359942744
0.146098775889 0.432999788983 0.432426901060
0.111286208737 0.384657406661 0.515646353750
0.156156549531 0.428612798194 0.448345223311
0.128906138642 0.402167912357 0.476388343950
0.253619363977 0.396082494963 0.409756648881
0.237987428372 0.362778247090 0.449864585598
0.230330771798 0.325648215595 0.501746234609
0.192411992076 0.400593166207 0.438654891591
0.206401058588 0.379026989078 0.447885797173
-0.073932647829 0.448617244422 0.438003552725
-0.250388163748 0.126620507633 0.402183477403
-0.244059557836 0.003879013574 0.434949567106
-0.222210075760 0.079727429149 0.476336867667
-0.234398819115 0.039186862095 0.456331236728
-0.267411687103 0.412670293666 0.510378274704
-0.232666724019 0.450182612957 0.434208515019
-0.247027876056 0.407013111329 0.419850755130
-0.275527224819 0.288986649762 0.459998886382
-0.343505772502 0.276940503059 0.406243011209
-0.239666974276 0.302722639304 0.457355522833
0.287852925372 0.442410532167 0.444497194258
0.257837723100 0.385120716856 0.424172327795
0.193461480834 0.434473983374 0.491282156741
0.244231187065 0.132561013979 0.504651604601
0.279226848552 0.231084068716 0.472086259680
0.303859048332 0.247310328028 0.426594892420
0.234694806958 0.163265261557 0.451527785303
0.248267979479 0.171495440102 0.456081274521
0.218749752010 0.175776786621 0.400829387400
0.220652017852 0.052854994716 0.418101491843
0.219133398941 0.098435167186 0.466740538660
0.261095701440 0.034081746295 0.413107185453
0.253030030676 -0.003241998524 0.452965513078
-0.192323570458 0.164149815459 0.472905252216
-0.241059750226 0.236263954114 0.438228549849
-0.200216098965 0.201915721111 0.385116626496
-0.242194825945 0.249562608273 0.468864370593
-0.223994148456 0.175735141312 0.426555630485
-0.246791901182 0.251066896861 0.478472935148
-0.055930462090 0.432107919859 0.436251294282
0.025996436626 0.384527018900 0.475105934424
-0.229503074431 0.111087007645 0.472650485279
-0.260121781486 0.164317801000 0.474342735098
-0.279816832017 0.146070043501 0.443797196677
-0.221288506061 0.080707518457 0.476565551993
-0.162467559794 0.057862642915 0.457882322361
-0.224422550842 0.099617061615 0.462809483245
-0.232928899752 0.122898797384 0.431516588990
-0.253538091142 0.069989046399 0.422813550120
-0.180578233876 0.143938361867 0.481790141554
-0.115187599234 0.381937636417 0.436717501418
-0.099359331356 0.432660755076 0.407281422908
-0.246003185029 0.402369122712 0.496557594724
-0.202430375269 0.424493360270 0.457074518071
-0.218200511881 0.397471266949 0.384993799385
-0.146067131753 0.354900725500 0.428848300601
-0.251946120598 0.350351836273 0.414604112451
-0.208219588119 0.272530805263 0.461492555026
-0.191297901626 0.336278790212 0.480189865100
-0.243947681347 0.330650600266 0.428778119579
-0.159017419383 0.304157702256 0.434789338544
-0.163534784101 0.334317445802 0.469958408067
-0.214483266557 0.330515833327 0.428276848466
-0.124558530041 0.389072867125 0.424046833351
-0.089793556190 0.335438009896 0.486569238615
0.259116492735 0.275047271502 0.390775955481
0.245167621930 0.289142061248 0.502420031835
0.215435508347 0.339038503746 0.465899559316
0.176225452549 0.390738887971 0.454597446423
0.364301864713 0.409499722021 0.486490361450
0.369613080200 0.463668981208 0.578461634267
0.386077293476 0.445070389177 0.559209807122
0.377899245414 0.437668743712 0.582236853164
0.365062780691 0.425933420747 0.640730107880
0.372281835178 0.432105016030 0.593560375251
0.397759548333 0.028873930436 0.503612101732
0.405123804495 -0.033695501783 0.530656673296
0.362880159069 -0.062757610357 0.525817856487
0.351100795577 0.029100222579 0.522593024326
0.287205999813 -0.013187337259 0.646739042663
0.362642863365 0.053000319155 0.515358937419
0.387860485974 0.053481124187 0.561394068800
0.353883975552 0.102153758287 0.592768178423
0.449829506445 0.014942886513 0.575496436057
0.368770366012 0.174023739278 0.533442219653
0.348672304150 0.073170235763 0.493046395458
0.360989511923 0.105937529896 0.539456945846
0.361727532589 0.111762023277 0.513523095627
0.392566217850 0.226679890996 0.580753237116
0.388729345795 0.202934505531 0.530882060910
0.352479008337 0.149428737161 0.522159220283
0.401768954823 0.132681646799 0.609075826168
0.389152089420 0.212015907933 0.532409474771
0.361400879060 0.181393142176 0.600852696649
0.355799762930 0.232130566752 0.548362957215
0.427449233771 0.221475665000 0.458481525292
0.360774735626 0.199714389086 0.587888938030
0.392639185125 0.179915752649 0.503358329507
0.321771877180 0.312836443875 0.553272401158
0.405841570495 0.317145376572 0.518935561931
0.374701014939 0.348489726813 0.530219298225
0.366897118004 0.351578523285 0.605329213462
0.322153821894 0.362203244040 0.478012707824
0.387251494401 0.347648166746 0.534795660161
0.410856281968 0.378460917709 0.521015358358
0.387027828624 0.053643086597 0.546892772064
0.416264880445 -0.025212711594 0.585685721448
0.366489831249 0.075457999093 0.597487223833
0.375372348396 0.016210676139 0.565729580216
0.378345873105 0.027239566045 0.639668088710
0.335038794764 0.000871522649 0.529470843810
0.360800228022 0.075763265795 0.561509303933
0.388226748206 0.031593642110 0.619360564964
0.308437526893 0.127022594395 0.556236461037
0.380946623576 0.091237631888 0.565111850728
0.306318445249 0.079313592361 0.597024117399
0.405456233954 0.143698643775 0.617808017414
0.378733556853 0.144435159059 0.659230053599
0.424661348850 0.318756235791 0.533943210835
0.341565157588 0.347181032959 0.553054123534
0.375058825423 0.341706328932 0.541242360534
0.438358509812 0.341058762960 0.587160444708
0.373238400866 0.448869989596 0.603063966085
0.387699770566 0.387791547359 0.627444485669
0.341612093294 0.358925990847 0.586910974195
0.335063477072 0.235460835817 0.574758747659
0.327615677723 0.228531404067 0.530510146335
0.381188618497 0.290292094137 0.535585695512
0.367797823339 0.271213117762 0.521561331436
0.365803398005 0.325121038786 0.639774604855
0.328446579394 0.296410395510 0.560418553023
0.365579821603 0.220965382475 0.541737536568
0.331121202581 0.257537717097 0.663235886918
0.409595351750 0.254824335214 0.610293298639
-0.758447051818 0.169759886397 0.372520461278
-0.701582569351 0.118128836314 0.335576222083
-0.781573955173 0.208224992468 0.323977665628
-0.656908515570 0.199744367554 0.337194167976
-0.690404834332 0.203519165460 0.326001613707
-0.711249790580 0.202378649447 0.317121133541
-0.704043583691 0.340298556141 0.302774752085
-0.720864333261 0.315297679511 0.259656705221
-0.681915993325 0.320666420098 0.268859388785
-0.726732802857 0.265028082370 0.269939198698
-0.710715848195 0.261888568761 0.360936934130
-0.673391167263 0.273967965888 0.317116500868
-0.656590450790 0.389909242652 0.280511680809
-0.713366788728 0.344603542006 0.290596924300
-0.671791326409 0.384341321326 0.296405938732
-0.720081948061 0.467327891851 0.267484128465
-0.710741809267 0.436072430265 0.195224984093
-0.662626947246 0.503638689384 0.194093127776
-0.684176288328 0.454607147907 0.176728386474
-0.733919707789 0.410905511507 0.124251747651
-0.685354733063 0.406732853011 0.182169092048
-0.666277959778 0.359453012617 0.250150309571
-0.777537536985 0.421549294964 0.281581465529
-0.665900944484 0.202450267991 0.299884888353
-0.687021356460 0.226411665020 0.322248119695
-0.691824160598 0.272694667659 0.276541076366
-0.656239471145 0.060929061454 0.207108071925
-0.668251849168 0.036591175111 0.303157145085
-0.711667060415 0.095955017734 0.313901884362
-0.671959396314 0.053315501017 0.278349451412
-0.746441284840 0.105815306764 0.306356758647
-0.668548233993 0.059220048462 0.331833897613
-0.709689548332 0.095671776466 0.353502663813
-0.675318335177 0.166540137260 0.337224721798
-0.677077170786 0.177724862994 0.262901511103
-0.705560535708 0.138427207243 0.293476765326
-0.743544721207 0.105029486412 0.210878473393
-0.683058261109 0.075296006973 0.122521190156
-0.654321819410 0.092790361447 0.154260294713
-0.717512539678 0.086866656864 0.176371332307
-0.725935118970 0.062594588911 0.228585577969
-0.699955857182 0.267467216955 0.005424404980
-0.743840514236 0.293318030117 -0.016068870829
-0.654970468391 0.290355151993 0.009304690944
-0.696019963811 0.246709090244 -0.027311185670
-0.717513056832 0.283207269321 0.052405115556
-0.718504910348 0.299913454033 -0.083159295225
-0.715598344859 0.141697627318 0.035550760998
-0.742132127399 0.095765461971 -0.059524035733
-0.780847843894 0.175033041705 -0.030572722841
-0.733305303877 0.125444399369 0.020898035439
-0.705562710770 0.172068743134 0.020450536857
-0.665108698672 0.123344373538 0.011156228926
-0.677314744007 0.076536281632 -0.049878907245
-0.676869747861 0.132889197512 -0.010229000424
-0.714570013385 0.100336376682 -0.010632481312
-0.726493419111 0.152624892648 0.097701295417
-0.695542298003 0.035466677255 0.123378416867
-0.716826758683 0.106877071257 0.082972259498
-0.699029083530 0.039437618170 0.145745269217
-0.703615010445 0.067765073155 0.104288547787
-0.700626873255 0.033178964335 0.052958314164
-0.771192891530 0.204083080448 -0.010175787888
-0.677387609122 0.233990044112 0.038915978690
-0.731090598828 0.217451074494 0.004515892397
-0.716509372571 0.398280048759 0.106540123000
-0.761223759470 0.352303500358 0.107985405610
-0.772625111549 0.382843829066 0.129392062533
-0.719725719366 0.367672250663 0.144638736588
-0.737407485876 0.439745915958 0.046775780132
-0.711616408806 0.366250866290 0.097754150561
-0.699249333981 0.312082024167 0.021101388762
-0.707731342623 0.397410982755 0.015222696948
-0.765958050084 0.308903730379 -0.040712729248
-0.695128337113 0.357545315416 0.036470119367
-0.747016255204 0.294659342453 0.021356055022
-0.662583490348 0.408601896992 0.175216338628
-0.758317609285 0.388942751574 0.144399303259
-0.738999829070 0.411036205836 0.107715564340
-0.720130827289 -0.021328118753 0.380090123373
-0.707651939927 -0.015179421485 0.459453818814
-0.734856013421 -0.061428175280 0.422409267658
-0.778525448984 -0.048611448505 0.347515871377
-0.779744071799 -0.034973026019 0.388874462168
-0.722742264621 -0.005664949286 0.443993228785
-0.778166761512 -0.015076426822 0.360883496481
-0.713210596997 0.025783965234 0.291281141689
-0.635804966065 -0.028760840704 0.286930277236
-0.785364127504 -0.013309444493 0.357956622047
-0.752298208366 -0.028948564463 0.375723924378
-0.726461301525 -0.034789316302 0.331719321373
-0.700374494370 -0.009655744505 0.368511947277
-0.713275089908 -0.081421584813 0.311896999845
-0.756204718110 -0.049937446712 0.270448472608
-0.739362059158 -0.028899310560 0.258392750802
-0.705374451991 -0.016739357553 0.217541739542
-0.722376310285 -0.086469947610 0.240961855945
-0.693798768552 -0.029981613763 0.143568520173
-0.747849817763 -0.030219969965 0.197428698157
-0.698854827085 -0.050299200982 0.271493091098
-0.754469423943 0.014822993749 0.209162977261
-0.676569374067 0.022648151460 0.197752176091
-0.684619817249 0.002203878632 0.167862220432
-0.739702998862 -0.087997262417 0.147050957746
-0.671129536579 -0.023159717805 0.073737519111
-0.721605328935 -0.006701793770 0.114694653832
-0.717159361407 -0.080764038455 0.073930102502
-0.741514150818 0.014038037748 0.100925448223
-0.742939216807 -0.043062428637 0.061238027301
-0.752040188316 0.000345835621 -0.009538404594
-0.777237772959 -0.044872186985 -0.019582324241
-0.726621958709 -0.007996483189 0.033019386447
-0.735196001861 -0.055049024967 0.048610840344
-0.729871844256 -0.019006345613 -0.017222195131
-0.729629961006 -0.052434820730 -0.063131353075
-0.712237047288 -0.000646754531 0.039474963143
-0.745828999460 0.034622871071 -0.038128208907
-0.731850281116 -0.077116541663 -0.044820457272
-0.727942870290 -0.046483673719 -0.063119133363
-0.749011476970 0.019146663696 -0.095258942861
-0.719721290769 0.018885582478 -0.020798042791
-0.745082897984 -0.004700350058 -0.127226926263
-0.722248744355 -0.020707788596 -0.045926996046
-0.712468631008 0.061875705510 -0.115817349219
-0.741198987742 -0.042344458112 -0.121433483414
-0.706688271349 -0.066528392777 -0.046711334213
-0.733411854524 0.000245322772 -0.138437783937
-0.737951133255 -0.029092535475 -0.116118324813
-0.727165152309 0.023914983683 -0.126779737196
-0.743113473839 -0.014581487554 -0.155609390860
-0.689448734097 -0.004659062337 -0.205779211923
-0.686172328157 0.065772912175 -0.159643629813
-0.743094077352 0.046126095847 -0.121053531267
-0.730937012604 0.031985485602 -0.155202830964
-0.789855218652 0.075682460873 -0.131964519767
-0.716612433751 0.043919510789 -0.184871740484
-0.659027817372 0.097369408468 -0.146993920058
-0.792997287320 0.132956281253 -0.206238529390
-0.676812130714 0.168490813969 -0.180688338422
-0.725239823797 0.113433341570 -0.183735458902
-0.757683139377 0.115629504764 -0.206214813983
-0.757459185467 0.067340589859 -0.141232296257
-0.756052061838 0.177486046341 -0.111444577595
-0.734713788270 0.207160948674 -0.142906613435
-0.700617018755 0.179239789672 -0.164039366571
-0.725986766089 0.140850147715 -0.213490136893
-0.753117870087 0.113057673431 -0.272041299220
-0.725890861614 0.199582562966 -0.233737983406
-0.705340589725 0.210976989529 -0.209575584137
-0.742695903705 0.266448652861 -0.166526028251
-0.719368842365 0.251827141476 -0.188695897254
-0.765743978674 0.078348610475 0.541744677785
-0.741507889790 0.071085200756 0.540901365605
-0.728132292021 0.130524549425 0.529371172520
-0.730078565014 0.113926873860 0.596838658570
-0.717932098428 0.065653101177 0.562659436854
-0.740681886758 0.171934481149 0.306454085967
-0.780300720166 0.202310750974 0.353352201007
-0.698184072900 0.194336929970 0.402380631406
-0.761508922552 0.155767402755 0.367538927007
-0.726347266648 0.220595340987 0.284887924811
-0.765712211543 0.232650144309 0.342325083630
-0.732964062867 0.257894184454 0.299772094415
-0.756294573711 0.260776997224 0.333131373509
-0.752817258680 0.281072946778 0.334615489705
-0.737620672680 0.286478598645 0.290738701630
-0.737418654373 0.366201095570 0.376826362892
-0.710121128198 0.390347740366 0.372929957068
-0.697249946380 0.289733385197 0.335187461901
-0.735239296805 0.383487547774 0.291888678965
-0.729983922612 0.365594648997 0.334700131347
-0.808426732732 0.359785513764 0.302252574803
-0.859160795997 0.490950111414 0.258258611307
-0.746807846110 0.445696326285 0.266505732517
-0.753382602190 0.444151433187 0.288076818625
-0.745545688285 0.408629597794 0.189664441088
-0.759564335592 0.544705048231 0.216146274431
-0.736935742748 0.441186837899 0.164313722852
-0.728266947914 0.399801130128 0.233502883605
-0.715209928890 0.113082774458 0.301357684674
-0.703661056744 0.151969936908 0.355845411375
-0.762703043391 0.130225446981 0.373720776916
-0.738009521881 0.473651660729 0.273959318905
-0.737493262933 0.395400950485 0.238633845619
-0.785915642229 0.396189637961 0.178759088954
-0.748309301860 0.361691895354 0.278932197384
-0.778018222780 0.483290219681 0.176651946316
-0.799260566840 0.482057409574 0.198792321768
-0.750504603348 0.467288033618 0.302594992394
-0.675151314969 0.470556545012 0.237406785700
-0.743358716119 0.471762660430 0.273589311510
-0.777641049605 0.396950588707 0.334121949941
-0.745510445666 0.477734911112 0.322782685758
-0.781099815749 0.468042491024 0.243166697787
-0.709696601898 0.327861462152 0.389793529346
-0.763616580621 0.257295664085 0.412628493101
-0.784148947249 0.000495399589 0.227456611378
-0.736833410841 -0.002037589818 0.223410271039
-0.714752388238 0.048051723120 0.261292499648
-0.759443833104 0.030280640672 0.263640376539
-0.745123760876 0.069543312720 0.327461421093
-0.734877633049 0.057644486579 0.285481266296
-0.733604659044 -0.001467399000 0.317328591074
-0.704365894864 0.097783015670 0.294388043957
-0.721332202601 0.023034263635 0.329610025255
-0.673531902895 0.052623824092 0.284973358061
-0.763845896653 0.028252571054 0.326860819890
-0.705778441468 0.070361125866 0.316408058433
-0.719356419910 0.017162029268 0.360568238089
-0.745745072761 0.110532927995 0.328792795385
-0.690535466091 0.070384139905 0.377254133335
-0.740405187709 0.110129614306 0.369303693367
-0.682548827579 0.054223040833 0.402185781201
-0.732982900501 0.109515963279 0.296301049392
-0.710362482277 0.048882197485 0.364316569294
-0.752920042154 -0.031337201173 0.126421754122
-0.746851775225 0.018295744281 0.114755233051
-0.682442321085 0.008062078383 0.159533796325
-0.719221162677 0.043931326660 0.244420233500
-0.750255724805 0.046116612511 0.146334646518
-0.719368841129 0.037404719073 0.162940059678
-0.736295990676 0.330898927791 -0.008822871690
-0.672676881200 0.302014694623 -0.055224756026
-0.765753605018 0.271769012442 -0.031759689851
-0.746096003637 0.348392323535 -0.049218508444
-0.727187041354 0.260999563389 -0.032100036727
-0.789066947636 0.306600644890 -0.096484672659
-0.732949027722 0.248760239952 -0.120035519849
-0.654854509996 0.257848448250 -0.085944450716
-0.718069920509 0.186035119932 -0.045492084326
-0.747083132947 0.502259198552 0.241396881358
-0.688437741347 0.471121331635 0.094383119232
-0.758047142188 0.467709344454 0.107943041075
-0.696251686068 0.201458506085 -0.069640715005
-0.756141045490 0.119364490098 -0.022060776474
-0.730655534694 0.132236850805 -0.074994262170
-0.747660146612 0.152479583477 0.023128484148
-0.726025173896 0.223123824313 -0.015677736327
-0.763694167104 0.039268394467 0.022576651272
-0.731485091366 0.048410389626 0.010107189898
-0.673720871548 0.085443892271 0.007534942116
-0.699348237396 0.068042633495 -0.009306211841
-0.746381508014 0.086812788515 0.007913404018
-0.701506818546 0.072071405973 -0.008861429693
-0.763501600812 0.061427418821 -0.019961208790
-0.697494689800 0.073743808076 -0.038816188379
-0.684207778850 0.083312919661 -0.001469831638
-0.705595872466 0.145392579136 -0.102585644710
-0.729238170182 0.124180407613 -0.010230069067
-0.754537385910 0.097412745479 -0.008476503837
-0.776803726455 0.111934403613 -0.044791548386
-0.712076547407 0.056259185570 -0.027112430903
-0.673980871490 0.105376294940 -0.153350641358
-0.756736976845 0.119977177836 -0.024581845154
-0.773711082910 -0.010542067702 0.113240139091
-0.722434929390 -0.016558173707 0.034748825489
-0.734855314419 0.007682233622 0.114810138423
-0.689116032857 0.040033649424 0.023928773277
-0.709650226294 0.049701027924 0.070922880833
-0.773661978948 0.036636291964 0.013644109867
-0.760971285668 0.013863298431 0.040693945765
-0.739646579294 0.182707904180 -0.088085173132
-0.727163483866 0.235580531972 -0.101622330231
-0.746917257387 0.149071056605 -0.060297121929
-0.767597701992 0.181409472512 -0.147718585852
-0.779376765152 0.212670313424 -0.027549755317
-0.749426795455 0.380115010046 -0.057171974526
-0.759083283671 0.349114534198 -0.046656876046
-0.757331607349 0.316760634595 -0.117722553127
-0.688573128498 0.386232884338 -0.074354619045
-0.759938811541 0.335055794025 -0.038136037166
-0.746894996899 0.366528263122 -0.030950054535
-0.755942168816 0.388925200771 -0.041091076937
-0.746112163125 0.461254309980 0.071520493806
-0.725274862349 0.449311475287 0.054964689797
-0.767285184551 0.404168619179 0.093998051577
-0.745427913659 0.412838633606 0.033598651288
-0.677491230351 0.343029447710 0.002684713088
-0.720444252298 0.384245247736 0.033874964527
-0.728121262427 0.340597076593 -0.015254475630
-0.736973146937 0.481349452157 -0.042642497321
-0.688317185070 0.452593200624 0.019394135131
-0.734439283701 0.326275129630 -0.023834268426
-0.730228630115 0.381566468088 -0.004504536131
-0.749198566262 0.863719527537 -0.547622806583
-0.775428765741 0.918500783148 -0.574702363943
-0.705513069784 0.765807545413 -0.561248963984
-0.724393140511 0.825093466645 -0.593192627427
-0.706117456949 0.836632591275 -0.539629884697
-0.728838890436 0.821097167074 -0.533971451729
-0.775118977544 0.838131506879 -0.529815653637
-0.757221808259 0.852969650133 -0.549418411727
-0.776536607221 0.866089181265 -0.497918668043
-0.724859520976 0.908056879679 -0.510558074662
-0.766958597061 0.852591420910 -0.451969114496
-0.715585067337 0.872147454158 -0.445891361781
-0.776617047870 0.828753166871 -0.412398290317
-0.710716851734 0.888842999947 -0.497338931247
-0.762724787392 0.854215496654 -0.404832814544
-0.796507214610 0.874337585843 -0.436386511527
-0.784325472324 0.885612269256 -0.437806912138
-0.770863712524 0.839811472493 -0.434391524561
-0.794102851817 0.770399300767 -0.410613534066
-0.724189901738 0.781053064342 -0.366226436986
-0.768691414887 0.775681678645 -0.473470121136
-0.748743139857 0.750598245790 -0.488220746863
-0.774482671370 0.854017284442 -0.420953853544
-0.761869196039 0.741843046747 -0.401049594179
-0.752620919556 0.816041440489 -0.413203111033
-0.745934010549 0.760042686446 -0.449372662873
-0.690394560990 0.823997236259 -0.443719538774
-0.720712096005 0.784827504211 -0.469911598733
-0.771808724014 0.817612137452 -0.438638353722
-0.776020571083 0.762351834005 -0.457624626701
-0.781127867201 0.867182924557 0.510774183205
-0.722290305798 0.905890611637 0.526772536799
-0.778367543917 0.866986394344 0.482817520170
-0.797572894093 0.878058192763 0.520886179312
-0.711264733372 0.861674260543 0.473782324559
-0.732658225265 0.871773322840 0.387972382723
-0.712872265753 0.897416344172 0.367934674794
-0.805193719404 0.929059644719 0.417020053496
-0.697255864858 0.949923316628 0.454431926730
-0.705085057468 0.836167385368 0.488610177332
-0.746173534405 0.914380462515 0.398815963181
-0.732773283738 0.808857335783 0.407659058580
-0.785051359107 0.863961237766 0.379181934475
-0.727265605314 0.807766616813 0.409487828682
-0.803025240396 0.802010029628 0.486937870741
-0.651632434953 0.822777132135 0.401402741074
-0.700513209738 0.889673759583 0.429839345361
-0.697371294308 0.641769855791 -0.437802538309
-0.797519472076 0.741135467863 -0.323934165811
-0.729315639099 0.724398756120 -0.377409210098
-0.716354297407 0.662355329763 -0.392571356447
-0.788720733629 0.683971257379 -0.395776560601
-0.729162926115 0.639991091252 -0.422707497147
-0.729615371544 0.819489111362 0.423481230818
-0.712997158854 0.759268801758 0.422880613191
-0.737125436778 0.773498188913 0.383951715836
-0.772183221237 0.705744755590 0.359810039182
-0.721172237279 0.741459656384 0.415483941621
-0.746010436297 0.815165823173 0.405679582732
-0.778736309656 0.756399477265 0.494827604209
-0.782128197541 0.794464252563 0.482734732860
-0.751228234228 0.683987924373 0.332522072321
-0.710482027869 0.665646100788 0.320138831293
-0.668168669704 0.644828724484 0.347674239021
-0.720161719317 0.685308389010 0.374301007621
-0.770735021172 0.694060898146 0.361535329787
-0.745846069053 0.640656000306 0.347413668936
-0.758161870439 0.637197752210 0.384218929012
-0.729322962348 0.754738599947 0.244262750636
-0.758116699652 0.690827626770 0.266103961864
-0.797859360673 0.730611394770 0.208440414572
-0.744405997730 0.623390283720 0.288466284522
-0.731227607232 0.664341237486 0.338353491049
-0.744438425551 0.723261857321 0.278001423098
-0.751357717273 0.700315798443 0.220712419712
-0.784648434827 0.705850679506 0.293148392541
-0.705831962101 0.015488239819 0.436568760239
-0.731050647354 -0.001480655152 0.523078824313
-0.705250268363 -0.030483025048 0.572862926242
-0.707129912209 -0.008398392369 0.419447866956
-0.788257707555 -0.016356595417 0.497923664917
-0.756889586213 0.465942880517 -0.098268435390
-0.712492831866 0.413388438611 -0.110622123913
-0.691487632412 0.540883961766 -0.026334173233
-0.716390494221 0.437920229535 -0.035186975898
-0.771511325120 0.447135821125 -0.053673054816
-0.751231418342 0.422340704781 -0.077509778244
-0.745167631765 0.481450861447 -0.000786203279
-0.756889150651 0.717625994430 -0.475909535299
-0.745717021947 0.722935558220 -0.418036423084
-0.723113275442 0.697338870662 -0.396631203194
-0.817375744514 0.670667781248 -0.372748548198
-0.698643986668 0.665546856938 -0.430288283576
-0.721601711146 0.664935649921 -0.423922206800
-0.734364989612 0.754678027237 -0.436916670566
-0.749196396652 0.712417024685 0.466165205233
-0.756613271012 0.655150109216 0.468210662262
-0.723743101623 0.648935918954 0.408324812824
-0.735046981683 0.749696632988 0.409627574800
-0.761255128260 0.706371448572 0.369540293427
-0.732975758034 0.713260012606 0.342998268642
-0.718314158594 0.646189958045 0.425119979737
-0.667990809272 0.689453603717 0.378537679618
-0.794219362992 0.654785656339 0.176755894383
-0.741753490330 0.692393663057 0.201890617053
-0.756916242721 0.683390488067 0.190786110141
-0.822233182627 0.701767898752 0.157706768251
-0.751314332258 0.696997961491 0.173803752971
-0.721522113290 0.692988338416 0.203250654492
-0.757703020784 0.620030185945 0.204733317124
-0.789052145398 0.690452874222 -0.313856730085
-0.749163727488 0.673930548645 -0.319696901138
-0.781580579147 0.728993655655 -0.282181996931
-0.737377613028 0.628363310049 -0.319094474910
-0.795795826407 0.718460904696 -0.327133791351
-0.738031683450 0.623614567066 -0.359637536250
-0.686973790589 0.134628523515 0.536381902487
-0.717712949514 0.145244306120 0.582561244245
-0.748626577123 0.133788282609 0.530684506156
-0.724745686656 0.139959848838 0.513093633441
-0.737436272953 0.132150701602 0.483487299216
-0.774121181104 0.682743705529 -0.147871161047
-0.795314408448 0.626604542116 -0.252976382899
-0.830267047326 0.667372950240 -0.156028337463
-0.761349856795 0.690103820858 -0.199211461359
-0.739320675682 0.652030273878 -0.197923479734
-0.747473876873 0.677762409827 -0.146218937534
-0.756339708610 0.742206369137 -0.239674646164
-0.714398618028 0.657879845609 -0.238790392966
-0.784341919170 0.747490709932 -0.258843308357
-0.738961911040 0.685731630825 -0.242216224556
-0.777826364176 0.682706225033 -0.216705333826
-0.745884480476 0.672807186440 -0.249708334897
-0.783612143016 0.712580998907 -0.047038748525
-0.740269118069 0.681187243343 -0.104235148178
-0.765716541794 0.664248359276 -0.139183307192
-0.803224696647 0.722210545564 -0.131712245880
-0.743317305317 0.709436698291 -0.175196423097
