-1.016602685297 1.238811141708 -0.276349707087
-1.005240174836 1.255441079739 -0.293841586291
-1.071049175703 1.284245587716 -0.267858233981
-1.043597759538 1.254526489663 -0.269054820607
-1.061536333784 1.251256684337 -0.285151900581
-1.031517284358 1.212890353591 -0.249155337353
-1.039931618920 1.287407590199 0.285451352853
-1.069387067197 1.276758980728 0.228219744200
-1.052323244789 1.280471645468 0.248525252914
-1.036727822937 1.302412481885 0.211018620855
-1.026369349323 1.266555306147 0.229050753260
-1.031319905363 1.255546252126 0.274459678012
-1.028299755471 1.265051043535 -0.215227544196
-1.041589016359 1.267411389753 -0.256002845477
-1.060741384461 1.285507280002 -0.278688161896
-1.053169099779 1.296539859604 -0.202052007833
-1.021994026663 1.298189920264 -0.257983479615
-1.022792875345 1.336806816758 -0.182306905410
-1.028016112700 1.352628786893 -0.253418763357
-1.057978849002 1.327353572588 -0.212440186640
-1.036029257582 1.328267131076 -0.182835671352
-1.035522433425 1.323260878672 -0.216417976801
-1.040467842400 0.893688026350 0.033856779345
-1.075460309089 0.902072768817 0.022611416375
-1.056473082438 0.945058660196 0.013110600506
-1.061812963190 0.930245211244 0.078595450565
-1.033566892604 0.898504157669 -0.026529022017
-1.034971464284 0.919963926351 0.015399809362
-1.043087146920 0.930696586338 -0.055531395754
-1.021026839459 0.923772171095 -0.029873703964
-1.050046182702 0.937740304863 -0.039939238026
-1.030348531301 0.895000355153 -0.054479356301
-1.060951166109 0.906716197699 -0.038310834489
-1.057185668243 0.885983721432 0.117778081094
-1.045817165138 0.920138015009 0.133945374940
-1.028629987459 0.943251908006 0.097153893687
-1.063920757757 0.907522302139 0.111298473307
-1.030295405050 0.943171311609 0.071882442335
-1.044350324029 0.953186436592 0.075743493545
-1.052566330772 0.920812600166 0.098617628266
-1.057410887336 0.886489906966 0.112242902028
-1.053152672564 0.891580694683 0.142664081646
-1.051420607657 0.879083818017 0.148166955539
-1.049864664860 0.914825657460 0.161541005372
-1.050937041374 0.916025065104 0.175300992447
-1.036789098053 0.927050922463 0.152536551246
-1.050987579072 0.902585315952 0.178146224238
-1.071360378693 0.882801075638 0.169945147219
-1.031573093740 0.923703247695 0.171549871815
-1.084046828987 0.957970464841 0.205416639156
-1.071538571233 0.914741983579 0.178077483650
-1.062185750789 1.400200686481 -0.143561769579
-1.024433513234 1.404301177753 -0.186955887062
-1.037186313658 1.404603840751 -0.210123562061
-1.032647555495 1.371714811010 -0.169799249424
-1.033058834496 1.419600449282 -0.188976659428
-1.048233046802 1.367904185883 -0.173332449516
-1.031891677019 1.379804837551 -0.173536898468
-1.045455950260 1.330121000201 -0.170873980960
-1.022805051438 1.371790361608 -0.155258146013
-1.021880243425 1.358368241597 -0.120576683049
-1.048146280308 1.465427622817 0.167300932845
-1.064033309018 1.444884651533 0.118151736075
-1.068470704234 1.436130884783 0.117634041120
-1.040903962133 1.423923518006 0.123483244834
-1.042445714316 1.449173203625 0.141735825031
-1.019873490214 1.426672884215 0.140803484188
-1.063602406488 1.471535288913 0.105756264608
-1.049030829797 1.479748017594 0.160826494077
-1.066999870373 1.233951166691 0.271478067281
-1.057646847185 1.223216289428 0.263380500754
-1.038704037775 1.196954156388 0.282816269871
-1.055721176369 1.207207411825 0.275783458299
-1.047710287155 1.226318847939 0.280717030582
-1.006792954570 1.222491186126 0.259959494632
-1.006947671057 1.167317804574 0.245800826238
-1.044982950149 1.255905610610 0.228566471880
-1.048902529783 1.208095346034 0.314317834527
-1.045356734851 1.218197340409 0.264231126657
-1.016793103623 0.969509884923 -0.197739359603
-1.072784811704 1.001613314387 -0.192104874320
-1.029432543210 0.980156766494 -0.225337848526
-1.044466432847 0.989394331607 -0.216331481873
-1.026662684763 0.994104820508 -0.191775965143
-1.026765596494 0.991879383124 -0.235467779609
-1.070701660875 0.988618369149 -0.227096169467
-1.034017066341 0.929621081826 -0.098647123228
-1.058052106022 0.856618064855 -0.095670528999
-1.061082650099 0.909733657298 -0.087775093709
-1.040112856196 0.893982417768 -0.094059715915
-1.066140377108 0.897706317325 -0.117411345348
-1.028785366137 0.942362653173 -0.085301415923
-1.059409588863 0.904774049576 -0.118319609283
-1.051170489272 0.960296034022 -0.128719939038
-1.048770310350 0.914832647110 -0.049709832664
-1.045710215192 0.907420459008 -0.106989962545
-1.039950183059 0.884802660127 -0.094521885724
-1.050399416123 0.922646593634 -0.136756877478
-1.060110812884 0.963036164467 -0.141216445300
-1.031990814970 0.939151128746 -0.150277970263
-1.019247237160 0.913693160813 -0.173998810525
-1.038369760938 0.885739819267 -0.188034983814
-1.028464752668 0.914527480468 -0.170019783506
-1.062887825001 0.926056222156 -0.160585233243
-1.053544821666 0.883930192451 -0.161932106236
-0.991473303350 0.895780912831 0.211044294432
-0.999478282765 0.907525205005 0.213485759878
-0.989052580872 0.901938830383 0.232880922205
-0.978638684436 0.893934095926 0.175625822528
-1.014990783241 0.866590068659 0.218368517837
-1.013567454886 0.901403108277 0.222496534264
-1.026173914557 0.910722587335 0.229515834745
-0.992108939348 1.139016342832 0.360170735342
-0.992231939833 1.123625474713 0.317006731668
-0.990497571208 1.167146711618 0.356034719028
-0.986828709720 1.172737388411 0.334644704377
-0.970799444845 1.101709530134 0.316888929577
-1.035210173699 1.114130682045 0.331497758438
-1.002753932373 1.090607712869 0.311751660127
-1.034768285920 1.119021123728 0.325265144167
-0.966822723800 1.138046749834 0.340016325946
-1.039760634247 1.042180151975 0.283461472948
-0.995700256243 1.045831988371 0.298687870063
-0.939384962380 1.056700099016 0.270505625130
-0.968645025901 1.015819088526 0.289452928028
-1.005872618050 1.040906937872 0.328167305585
-1.034615154865 1.067949385155 0.285517706819
-1.014609665757 0.961728855785 0.268664197925
-1.000163751842 0.995907901279 0.253474975700
-0.969845668646 0.973446241132 0.254904573124
-1.003926451153 0.981409289447 0.233541325825
-1.003855799283 0.972140640890 0.247262683916
-0.988538260600 0.937154483073 0.215833396886
-0.978752438379 0.949113975477 0.260490835524
-0.964500716584 0.935660477789 0.232137266988
-0.997516127094 0.965028721517 0.243261740638
-1.028908065706 0.964008660338 0.220641856391
-1.033351755812 0.907202193266 0.243544858008
-0.954232438102 1.171890056279 0.344865495048
-0.903251625919 1.128165970641 0.327462276970
-0.964941593422 1.148395423035 0.367641586547
-0.951725046420 1.161451267885 0.342911506384
-0.951208988353 1.030441672664 0.285445721679
-0.930999578367 1.074104801219 0.292108116049
-0.979018525883 1.063228895989 0.309479142553
-0.886103790614 1.080093186686 0.280048062192
-0.970496421425 1.058371703040 0.302496957917
-0.956152704615 1.066419755481 0.297510571720
-0.938655275181 1.109736785687 0.326182426363
-0.986084274728 1.148262915418 0.332356123133
-0.943244822677 1.124358894289 0.340643807420
-0.945604371095 1.108603905333 0.339696594143
-0.967405890088 1.124163721670 0.302579410365
-0.812065982566 0.759795430832 0.269468653305
-0.812523112795 0.748871280495 0.327951627515
-0.802578836078 0.791211181085 0.249487046786
-0.802481228315 0.737308058805 0.266090326497
-0.812014549931 0.748325489526 0.269314797908
-0.814188517989 0.741516213682 0.269800006269
-0.818263854693 0.753862630950 0.265938106644
-0.814008071129 0.734637732128 0.242377778882
-0.837855843358 0.755409846003 0.156995164947
-0.805653647666 0.732784261398 0.187087893388
-0.850284279439 0.736622665259 0.241041373251
-0.823532693886 0.752141585481 0.229657143777
-0.818676099458 0.768839497147 0.202967392187
-0.818311872077 0.776980543964 0.233401036752
-0.818809026872 0.788823251553 -0.265730768135
-0.828686278919 0.803731657257 -0.270919802110
-0.838676702471 0.791192523310 -0.242028398198
-0.789667659621 0.776315174251 -0.270454528905
-0.838287511972 0.819525610796 -0.234100775548
-0.840500043709 0.763156891805 -0.216868993960
-0.828027223268 0.789952990786 -0.241341541861
-0.846928914098 0.823461353990 -0.267106954436
-0.840033754603 1.210020643784 -0.319566892945
-0.814964935538 1.243211619438 -0.315931875185
-0.831270614059 1.200170621598 -0.334623358790
-0.827323007697 1.328075315065 -0.308234709369
-0.811695520510 1.324071466322 -0.301232707306
-0.815490402064 1.293627728270 -0.300978817813
-0.836087376336 1.316615684014 -0.275044627943
-0.802427302738 1.407381497103 0.191380081526
-0.824301219687 1.403485092080 0.197845593852
-0.810984040042 1.418606451754 0.179864813545
-0.829616593167 1.445735531324 0.197857008352
-0.835077253602 1.451541780830 0.203707412901
-0.816345567487 1.344461026196 0.300164030483
-0.813552488196 1.364583431735 0.243485259026
-0.837391034487 1.403605065987 0.259415221257
-0.801824991031 1.304058438417 0.281005437199
-0.836650849404 1.300397544713 0.309569196132
-0.835065837679 1.313281877607 0.316884329035
-0.839161552004 1.340481042745 0.277296715676
-0.824163262227 1.138053733941 0.303812673933
-0.808546039737 1.160413785187 0.340442524059
-0.856900474325 1.177240177107 0.320495738547
-0.828268972495 1.498510181569 -0.116653519716
-0.843405809925 1.537436174931 -0.119889802327
-0.847577126414 1.469806327951 -0.119030052910
-0.857853661279 1.468951193205 -0.112140280539
-0.838063740765 1.489579466207 -0.002295940915
-0.835210862817 1.497492773756 0.001308812351
-0.836735470360 1.469691994988 -0.047176035414
-0.823275360177 1.477002018086 0.098802378750
-0.837423740380 1.464248624073 0.124681074878
-0.839512904243 1.451240448124 0.110749113018
-0.791457634500 1.456647773411 0.138462045381
-0.801840672715 1.471190314554 0.077102354286
-0.838511513851 1.267357945089 0.339105874402
-0.840697644879 1.255128520026 0.302276980863
-0.822730869071 1.217310615250 0.348844441538
-0.838279569285 1.232137573458 0.310363037113
-0.844670821312 1.495218601719 0.005622149850
-0.794994766881 1.518902011348 0.015693285471
-0.812632777953 1.475374818066 0.005985325861
-0.852044085245 1.509392272419 0.005022147972
-0.821833308014 1.447495804729 -0.171620803423
-0.810255490253 1.475892966513 -0.168829160707
-0.823747955435 1.486711074874 -0.154524171439
-0.815081271576 1.472050523658 -0.139967762517
-0.842780901067 1.477218671376 -0.147057584672
-0.817138879153 1.396496830874 -0.225689953146
-0.834459656452 1.444514058776 -0.209106221546
-0.830840555325 1.438901077387 -0.204702969392
-0.828546618569 1.402242984718 -0.267886446549
-0.824078601463 1.372253626419 -0.305077758985
-0.858777256922 1.360395789203 -0.251417165546
-0.838776892906 1.365785607875 -0.250343704928
-0.815492572290 1.154858559487 -0.334759522508
-0.835160873977 1.149612759347 -0.364161674836
-0.834475261040 1.152152102860 -0.325643019865
-0.814479203538 1.189851355541 -0.310132262919
-0.845700578639 1.066221946607 0.321662867328
-0.841248510050 1.163072275685 0.344859165820
-0.808478260834 1.101967586516 0.337252522187
-0.843475953755 0.986344490322 -0.268138717971
-0.822560353272 0.964431415713 -0.245613915835
-0.804666158232 0.963426843393 -0.255536801256
-0.848746330652 0.963879790111 -0.254484518170
-0.798983135840 0.989282748003 -0.296940352755
-0.820766183093 0.993973476750 -0.243776197187
-0.840139392087 0.799867147667 0.229266831681
-0.835010569456 0.829525184636 0.249735123524
-0.841605156509 0.834878742384 0.281601953550
-0.820685902824 0.814692829915 0.251188132317
-0.823336820570 0.819987424568 0.242574407544
-0.816099311371 0.881565051353 0.303202854210
-0.821802283230 0.818434208458 0.219166078819
-0.810748753916 0.882664730126 0.265499898823
-0.823830303010 0.807974684482 0.301593676858
-0.848995587147 1.296105253066 0.279114982339
-0.866508549224 1.288297194333 0.285084727011
-0.855673883074 1.258608938582 0.257816901290
-0.851161269062 1.300204307557 0.272941152964
-0.837878016467 1.186990866547 0.309607383820
-0.842535799540 1.189183029959 0.317508791464
-0.830320788364 1.185497277561 0.302923956527
-0.837731956522 1.214010157326 0.310229184526
-0.874387713524 1.249019569418 0.308379959080
-0.880138360017 1.269220770125 0.276393177807
-0.850346840146 1.207550770595 0.292990197214
-0.891761066015 1.160818502255 0.296986149825
-0.876205803110 1.197245857914 0.329021016341
-0.867314635816 1.231422766875 0.296109678286
-0.910207343690 1.246528265102 0.302835074324
-0.872507572545 1.189825300932 0.315357052562
-0.889574283892 1.241000156900 0.304746789193
-0.893429959122 1.225002694619 0.307665082380
-0.894241014376 1.298135015015 0.278264003744
-0.896033006343 1.274791488586 0.307507923422
-0.867905605928 1.311939226457 0.290315911747
-0.853783607266 1.260319181116 0.297543753173
-1.041603414203 1.286822136882 0.157192130345
-1.046490119295 1.251875495962 0.139621942611
-0.999610814722 1.240146428106 0.147387127696
-0.998552367774 1.239961870586 0.153301477541
-1.038531801667 1.222048577498 0.216702594974
-1.004000021669 1.200421989886 0.147836713210
-1.017822450188 1.224785466221 0.140406818127
-1.014280763608 1.182014132809 0.187231362061
-0.998007540295 1.138856594056 0.153121837478
-1.016702109668 1.168657422384 0.180717144300
-1.028539712377 1.154852143400 0.170689571071
-1.053512147618 1.145633669461 0.155916344802
-0.913205365006 1.023531523354 0.270530452684
-0.910509145948 1.003560412549 0.249156731338
-0.900129392244 1.041279139709 0.260504729576
-0.892103109944 1.045054054807 0.307266626117
-0.915258257811 1.111237237847 0.310963369636
-0.887095346540 1.078865711138 0.278914168369
-0.862972144081 1.074383958954 0.287466752682
-0.767337242039 1.479975883069 -0.200271141994
-0.748085460683 1.499733299028 -0.159213067572
-0.769160161714 1.474209314696 -0.221532669493
-0.754546845242 1.472265138145 -0.256115523025
-0.764146577601 1.494071720053 -0.197284108626
-0.781618405098 1.476016114098 -0.204813200330
-0.751574598899 1.476586610132 -0.188106580858
-0.737664453971 1.531146940280 -0.115856009672
-0.745398977814 1.541288785279 -0.144849607755
-0.750661214036 1.528963593728 -0.126324218573
-0.762940375983 1.511766124207 -0.135421356076
-0.813626654456 1.558799007271 -0.150688318557
-0.767624362347 1.517205803582 -0.131892019691
-0.760487831356 1.561231627933 -0.030520183733
-0.782220228072 1.547035134189 -0.009824183530
-0.756786422496 1.570060727798 -0.008709038893
-0.719947865948 1.552823732267 -0.040160170742
-0.806482047822 1.555693505956 -0.026525414606
-0.771450828155 1.564561013064 -0.068406518655
-0.765581558770 1.519021731640 -0.048763840277
0.951945175473 1.479001111561 -0.241398973869
0.962518394093 1.464187055222 -0.250814460066
1.007799358324 1.455302859483 -0.214035983209
0.947486845844 1.482288166352 -0.230276307625
0.947886886930 1.510935599930 -0.211853144095
0.973676940867 1.456503381512 -0.269068052259
0.964420856816 1.510453396127 -0.245767272503
1.010146967469 1.452298232309 -0.271771274762
0.991786907571 1.434168016805 -0.254075935467
0.882881674066 1.466316752474 -0.255072985871
0.849234281432 1.446701616201 -0.275277793091
0.922821669675 1.492487236870 -0.236225245602
0.885559889990 1.478336757379 -0.257003694657
0.874549900439 1.461327596016 -0.262373937083
0.938852417075 1.466549113516 -0.233280060394
0.909041768555 1.421718861952 -0.292298656577
0.889136911323 1.471383035650 -0.213397742628
0.924557873843 1.503729387909 -0.258724382150
0.870663517545 1.452333265707 -0.293433073886
0.827037110305 1.444039422100 -0.239137051834
0.778283298780 1.468726327806 -0.242827497528
0.823322578789 1.455633841918 -0.272520740562
0.857406517205 1.439165612477 -0.283101993026
0.859034301503 1.475437287574 -0.240038036949
0.834167746316 1.464616139658 -0.271364825274
0.791377430433 1.449383823445 -0.232177881603
0.845342397313 1.458601655897 -0.209040491421
0.789121332530 1.487867643287 -0.239416034640
0.694834031396 1.444433776873 -0.265329926718
0.772813360812 1.456797674405 -0.237994887513
0.705012658834 1.463440369499 -0.241689440914
0.706493883226 1.450379672369 -0.233914310959
0.719954046910 1.473630925262 -0.256040764849
0.682749500958 1.457465617897 -0.224227088711
0.729095845981 1.462030590992 -0.280785855661
0.750923751830 1.456210094266 -0.303045205820
0.768934424796 1.422629960489 -0.289045879568
0.772931200766 1.449233854916 -0.289589754820
0.780533870943 1.460512937373 -0.218339940839
0.340643588387 1.452850611469 -0.281975317021
0.350114096392 1.481343561175 -0.260466200308
0.289617227035 1.484827933555 -0.255054082230
0.328518715913 1.419427535330 -0.273654402167
0.348363558054 1.472386141423 -0.260796278990
0.340036756315 1.440291152166 -0.295874501919
0.251394273382 1.459607412352 -0.239660077242
0.312099872440 1.476447680116 -0.237710358765
0.311681097668 1.419054255817 -0.256945548330
0.343868716561 1.485856823398 -0.263532479212
0.355281070275 1.418246447477 -0.223929838274
0.322687845930 1.439806178536 -0.264723985647
0.310456182185 1.481743083715 -0.238253852022
0.221832404279 1.457676281537 -0.229778757728
0.177755657376 1.442414977628 -0.258452773192
0.193791697789 1.463809084763 -0.286332229003
0.213998205109 1.462722721858 -0.244676425438
0.279126554859 1.466495515559 -0.193173636410
0.178645017633 1.448033300260 -0.260281139681
0.172069466191 1.450376607220 -0.257234552650
0.211219128378 1.484092705375 -0.219109972291
0.268691266089 1.481773853666 -0.265904643523
0.220342234846 1.466099228631 -0.250329185185
0.237768930653 1.484185808275 -0.212872547277
0.112806148807 1.473740330739 -0.244279209293
0.102012417622 1.495578314599 -0.241524729144
0.052070336220 1.491948661328 -0.256707662310
0.132512709022 1.484491574442 -0.238905872989
0.139855813613 1.469143372635 -0.251936919938
0.080724016671 1.502661632310 -0.240002214167
0.054021759237 1.456805201514 -0.241200645896
0.120171102776 1.474403434874 -0.214919542375
0.115845683490 1.475776670537 -0.232295866123
0.141333599664 1.457959478684 -0.256839716137
-0.121052331010 1.492608408663 -0.231943978885
-0.119314801344 1.479096235875 -0.215232075016
-0.141970774371 1.474513047506 -0.211529743781
-0.111734525281 1.473099660749 -0.241807315684
-0.161756964887 1.474921995557 -0.219861576084
-0.125413734189 1.472853394309 -0.264678368059
-0.130056468079 1.487478981729 -0.228262673287
-0.126750743862 1.512683894223 -0.197694533324
-0.134008285573 1.480893530184 -0.219956005912
-0.208135954492 1.485077391137 -0.230369987903
-0.160965523131 1.460671796558 -0.217481117409
-0.355401668443 1.459408149479 -0.227706548060
-0.238709271786 1.448381861043 -0.250151196223
-0.244949306738 1.469275579328 -0.239295467784
-0.339676188212 1.494440465454 -0.216533899870
-0.286337923785 1.487852649527 -0.207898840588
-0.216325856249 1.476081804055 -0.256747022478
-0.253381863325 1.477813192836 -0.244045788210
-0.249254542463 1.479400187033 -0.239385116715
-0.233029996036 1.451981176596 -0.240760348594
-0.271654803761 1.472267991889 -0.189002094407
-0.334251136328 1.483578597968 -0.246166004216
-0.314240485913 1.480280277578 -0.226986019390
-0.270531971044 1.488052364056 -0.219851281831
0.958882492937 1.548753049350 -0.005367948022
0.959311549785 1.546327285255 -0.006921392624
0.925493226388 1.566957558102 -0.054630888851
0.938726509333 1.575442415113 0.009647994849
0.914913739141 1.582073071426 0.028483835744
0.968171792583 1.532856157060 -0.035563840680
0.905543481668 1.555444253031 -0.049521954946
0.964776931394 1.566530382254 -0.043858676349
0.839855787883 1.553386112408 -0.014298213026
0.833026039224 1.560344030127 -0.050616594580
0.870358437309 1.580262657035 -0.017938001191
0.884649070841 1.539969546478 -0.010546032996
0.845223394014 1.555748807278 0.023130831313
0.904229316917 1.553075272508 -0.007711896604
0.852751890810 1.557655514071 -0.029553025326
0.771973087654 1.523382427987 -0.028163509804
0.789757795124 1.556502257807 -0.007755144576
0.795933665387 1.574397630834 -0.034131504921
0.819778709502 1.606449296676 -0.023329031966
0.738868129434 1.548419616293 -0.028918372551
0.805127352938 1.553030565887 -0.034767635242
0.853850117565 1.561391903917 -0.033119169854
0.815675944820 1.561005955197 -0.000347765339
0.009886552808 1.579995965037 -0.028963528334
-0.011062332288 1.519249172760 -0.067310217930
-0.012322882585 1.550602804261 -0.006461083523
-0.043081387080 1.551050555884 -0.078614397021
-0.093162606924 1.539950452387 -0.046313628626
-0.014869377776 1.568129716205 -0.057979609201
0.016699690198 1.556736643577 -0.062593774550
0.013068503108 1.567021914356 -0.069988471318
0.038459977244 1.534368718737 -0.025215463100
-0.037810910288 1.546876676635 -0.072815464955
0.013146081934 1.547167958909 0.000847122600
0.025583965420 1.542768292558 -0.067689879146
0.156667732240 1.541268822870 -0.023078747492
0.110832117797 1.551838815361 -0.071665835577
0.132187842206 1.557143649837 -0.029297125501
0.153574787649 1.579777968219 -0.020551242680
0.062396669589 1.570558884939 -0.061408933849
0.146454237168 1.572189759105 -0.043831472517
0.137929724458 1.526641762293 -0.076412229580
0.118313555229 1.575359667713 -0.064414407526
0.142938121538 1.533623184840 -0.009522498690
0.089457435218 1.535646163061 -0.025691781930
0.090276834814 1.571425058953 -0.086799597193
0.108290096508 1.545097797801 -0.049936769843
0.116098020359 1.562594321136 -0.076686130710
-0.730321009559 1.562971192795 -0.015389826799
-0.727732020613 1.550264909750 -0.015541488335
-0.671206930205 1.562485750585 -0.016943507668
-0.666225804570 1.552341997057 -0.032292232096
-0.692316860302 1.520362246235 -0.088379385123
-0.693375854002 1.561773057975 -0.034582683753
-0.759213610967 1.556012944610 -0.018747903867
-0.704245369812 1.541137608614 -0.031524916424
-0.727601520815 1.573672352558 0.002569816716
-0.657869797703 1.566853718611 -0.022742692902
-0.672734517702 1.544457610130 -0.028747539636
-0.565274854171 1.558514629285 -0.038725191718
-0.596653639693 1.532803576179 -0.004079882946
-0.569091330939 1.536840928492 -0.028986179066
-0.626276109721 1.548143722219 -0.016455711608
-0.582810519682 1.562760451084 -0.040845864192
-0.575429223201 1.544707523305 0.031804808182
-0.565275945384 1.549857289585 0.028426353048
-0.608365628044 1.553684264831 -0.019157805086
-0.578326523513 1.522832775793 -0.010694217008
-0.616552822381 1.561437355489 -0.010758930966
0.911519281804 1.537753886446 -0.152681040107
0.924093509308 1.541014923978 -0.198166497680
0.890713449073 1.523153740000 -0.159363309604
0.909643371778 1.488580621740 -0.200528089266
0.864879015581 1.513788861358 -0.181055735426
0.907804245723 1.512237209286 -0.172681600439
0.909972564370 1.510566361821 -0.179665537770
0.845692509533 1.503260962893 -0.178330787049
0.915397131218 1.480206164990 -0.229088702097
0.768737695077 1.541417357873 -0.166472597712
0.802291086782 1.514059302337 -0.193800058876
0.746721606863 1.510696327566 -0.207949589859
0.809450406508 1.506229898595 -0.161870916594
0.761466726996 1.497276710754 -0.204258684553
0.800603427373 1.513683349256 -0.221347249771
0.773960256625 1.490921822781 -0.167032460277
0.792760329187 1.526435372348 -0.159875193055
0.793406558150 1.519268693252 -0.187107998678
0.778954919242 1.504538006072 -0.205418063133
0.441911398124 1.491164518413 -0.203816082129
0.467131920892 1.511278214074 -0.179483130627
0.453190314324 1.520786923712 -0.169465887973
0.442112351831 1.504407817997 -0.176878123818
0.444068492947 1.504021548103 -0.169867137064
0.418343912945 1.501214381477 -0.190131836125
0.383273473073 1.518110455807 -0.161981097569
0.502708881205 1.521930514221 -0.166304055422
0.449612638369 1.510866763693 -0.182403154987
0.461244548811 1.491674013667 -0.196841261809
0.443146346392 1.517396469588 -0.171269755664
0.451300034691 1.516168398322 -0.160371277963
0.355900018470 1.516911068221 -0.164447732240
0.294885050973 1.514800669702 -0.171024380581
0.358733989245 1.513971620393 -0.178249284997
0.393374991231 1.525708526582 -0.178520479583
0.369848909714 1.507469285815 -0.225337521824
0.341625086048 1.499322263700 -0.192419636774
0.345143832838 1.500133666848 -0.168935829664
0.369715143850 1.480974544781 -0.195519367486
0.372304726414 1.515854892060 -0.185730079574
0.314267427641 1.516873670742 -0.101405562453
0.329167471316 1.505593098086 -0.131260228500
0.325547077508 1.509925471384 -0.162980266701
-0.025089833608 1.503204630414 -0.241653330539
-0.029868619938 1.475828166841 -0.243216601454
0.028268691060 1.469530695664 -0.238694081881
-0.037870617599 1.500295980074 -0.239021437800
-0.047043225465 1.490019181823 -0.211044680371
-0.000112485420 1.511844139417 -0.215531146308
-0.007007557957 1.489185688689 -0.224664161907
-0.008093736473 1.484934108303 -0.221115114717
-0.042649594887 1.443915067106 -0.206847288561
0.014512059717 1.488178823434 -0.227973999907
-0.462813210325 1.507312352307 -0.163576277477
-0.480322747655 1.500402878426 -0.157014735853
-0.481488428594 1.525677361460 -0.167597845763
-0.539730121404 1.512198746542 -0.145231330080
-0.486925635291 1.488075984153 -0.240073892083
-0.511997978825 1.494530543820 -0.172869704453
-0.516463153829 1.520506569613 -0.159550765896
-0.533481743311 1.517799914843 -0.145087710518
-0.476705046453 1.526012488140 -0.173390629775
-0.493257032539 1.497475481210 -0.214597380449
-0.485102653353 1.507315544657 -0.234924247335
-0.473365516460 1.477323380815 -0.193871724655
-0.571171831377 1.502900195238 -0.183639112672
-0.550953829264 1.485225063797 -0.222269979675
-0.566203113150 1.521964600372 -0.189857646496
-0.605588827575 1.479624942704 -0.187902696417
-0.633163785608 1.523048769136 -0.206144242539
-0.598174865537 1.497641024277 -0.214620642156
-0.600624620704 1.517523449829 -0.167856694574
-0.582972064927 1.523842863617 -0.164115717160
-0.633773851269 1.506847575670 -0.225615624136
-0.615789081395 1.460503014150 -0.187657019774
-0.550616600667 1.495663001191 -0.219015014211
-0.670933302112 1.470543454968 -0.183430852313
-0.741183398428 1.484427157470 -0.245262394410
-0.707414759824 1.497532525672 -0.211937969253
-0.682726665356 1.488673985786 -0.189574426695
-0.665950874078 1.469790776838 -0.227262529655
-0.685704135362 1.519077940301 -0.213701182234
-0.717285074441 1.499031159555 -0.216308665413
-0.670578612405 1.480169583814 -0.240240492109
-0.718841363304 1.470882575456 -0.192284391159
-0.662769286848 1.489853588477 -0.203747486492
-0.715494403431 1.527866074666 -0.196503490637
0.888078156577 1.542465189530 -0.098750409777
0.885464200310 1.523801023886 -0.148553552025
0.840796138944 1.552472122140 -0.115761482330
0.858141491252 1.561468084712 -0.102416229275
0.864421425631 1.563866786537 -0.070834920747
0.848371272793 1.548312575558 -0.154656676035
0.847601995636 1.538785798070 -0.136880438740
0.876755457423 1.550412093550 -0.113216575648
0.890569333842 1.537021022963 -0.058529302178
0.843607510923 1.558465990724 -0.096831424606
0.880713112639 1.517640130526 -0.156203027103
-0.044290737384 1.510111653544 -0.119528737825
-0.007953826209 1.554697915159 -0.112561903023
-0.102636452079 1.544764937256 -0.135849231411
-0.027175798985 1.515086733563 -0.083929800722
0.006188568412 1.538606854361 -0.094309858048
-0.077892403081 1.541378181395 -0.141447207542
-0.005691985561 1.563389822956 -0.110840928450
-0.004883934160 1.515753750788 -0.116757766056
-0.030081710501 1.522979306861 -0.108096192056
-0.057971868129 1.568365723704 -0.123247406994
-0.004152684699 1.533785895067 -0.117462596882
0.077457572623 1.554354073643 -0.150513163645
0.126369022113 1.608247146389 -0.073732143806
0.158761424509 1.512880876445 -0.112461247510
0.104865189117 1.544415208231 -0.092762940821
0.102006225848 1.531132594774 -0.114664835966
0.125287857830 1.536213474241 -0.115086033731
0.139307967726 1.543401897475 -0.133752138505
0.089776184468 1.526503766530 -0.148614147811
0.118926711743 1.541166945105 -0.112169073611
0.083978166085 1.561824897717 -0.108848014417
0.127164891514 1.514228113350 -0.139323744592
0.147874012865 1.546784754337 -0.108570161217
0.150298036682 1.548940731233 -0.115701370417
0.514989643453 1.478658338853 -0.240938235089
0.579402785754 1.511213526811 -0.180155853587
0.516966097035 1.527132417236 -0.167896411554
0.535155022262 1.476823154537 -0.229273739058
0.531356792497 1.513431360424 -0.187416869447
0.565205471848 1.494303032167 -0.203309345272
0.548697156133 1.530062550001 -0.139274780875
0.498816064119 1.477758582808 -0.187187985428
0.534532949101 1.483455962538 -0.203141920628
0.523728887804 1.518011421060 -0.150934956704
0.549884480367 1.521651795831 -0.216952288458
0.528383762613 1.488545667038 -0.154779339967
0.575711215100 1.514028802173 -0.128123901349
0.748473885016 1.554770096045 -0.102283455712
0.775245607764 1.551749209858 -0.104938484662
0.763977401108 1.548420867346 -0.125496248060
0.822371958380 1.531095498924 -0.085251306204
0.783120911857 1.556363960214 -0.126120760853
0.780449236488 1.542048745494 -0.104538062756
0.773881145764 1.537617030583 -0.139262608660
0.814245658175 1.541209913438 -0.124932109525
0.781780083347 1.549226168711 -0.082508371495
0.781699691896 1.543923625709 -0.134492335046
0.779455896149 1.537770199832 -0.043377520673
1.007761111884 1.517412907721 -0.185221019496
0.969768076429 1.496267543557 -0.177850840301
1.007865826690 1.519277146806 -0.151036398872
0.951785895306 1.538917985139 -0.162894373217
0.995569597593 1.525636266186 -0.132881195532
0.958881825305 1.503042255429 -0.173775809149
0.985092478402 1.517201861353 -0.177906155723
1.000139900373 1.548795114362 -0.151000747997
0.991911013790 1.497539050774 -0.180820052413
-0.023574836008 1.496995472369 -0.181541698593
-0.067422396126 1.502063793524 -0.208679285457
-0.038129776895 1.514789568890 -0.184286766917
-0.077691875511 1.464426306992 -0.192566209878
0.012680309977 1.517972461789 -0.142065330410
-0.015084454703 1.502887464903 -0.200240466863
-0.010385765435 1.530949217616 -0.165585115182
0.010797044571 1.505738456684 -0.139452477432
-0.009887935871 1.501804960433 -0.160906393513
0.012293852148 1.507077301902 -0.173130441002
-0.016452807342 1.552404366116 -0.164748423672
0.026578956935 1.523869947362 -0.178407695674
0.139508294129 1.519130810166 -0.153485163588
0.138963096292 1.515595087986 -0.172220538918
0.081034807239 1.480598569932 -0.196741632735
0.109270213208 1.510468296006 -0.213690462298
0.129270771742 1.534045707639 -0.181205961032
0.132550959707 1.510831741332 -0.187515958386
0.114304412291 1.508683615052 -0.144379411381
0.127847086959 1.498988107900 -0.224262442942
0.152157037879 1.520358024281 -0.195583481515
0.093885556963 1.518325442428 -0.170963087790
0.094578699096 1.511147109143 -0.184131445763
0.941246440424 1.513451776567 -0.120171727883
0.924433431693 1.572550649249 -0.106665580762
0.951756088095 1.552605064760 -0.069086717878
0.968845149592 1.554780062184 -0.069701815418
0.953069894362 1.532576293148 -0.097972350433
0.948447121806 1.536613953354 -0.087318878732
0.967413230206 1.566997797068 -0.082658995090
0.980201504210 1.548136405130 -0.121821349599
0.962125780985 1.575145768818 -0.051423612348
0.921501805675 1.545642690803 -0.144420852857
-0.161118896437 1.513887181881 -0.172815077014
-0.124186461106 1.541891204493 -0.124353709007
-0.143664255924 1.527014182848 -0.149388794066
-0.155380549440 1.518087753878 -0.179354080077
-0.142321459667 1.524184152511 -0.134744298210
-0.182732520417 1.512183173288 -0.142873774887
-0.145823422345 1.525052524435 -0.146833335847
-0.078678889432 1.509118512544 -0.173993054684
-0.167959289545 1.556583061367 -0.146220334407
-0.136017820509 1.538354520502 -0.095545229171
-0.110054162422 1.521213396733 -0.144524385285
-0.178898467368 1.499429935392 -0.154911700392
-0.671541169437 1.549726207065 -0.137956200008
-0.717483762194 1.524114322086 -0.067921699697
-0.726233109538 1.527807862773 -0.120708402984
-0.686798414406 1.514668568614 -0.100238682518
-0.697719794100 1.553666649960 -0.074718422256
-0.690437160217 1.514328909793 -0.147473003149
-0.662689387571 1.519234938199 -0.106148037423
-0.702921807860 1.549336163728 -0.055619163911
-0.742782295742 1.551762891033 -0.108122977169
-0.683554114403 1.554700463670 -0.156442486878
-0.592254603075 1.557544707664 -0.091675627400
-0.661538626689 1.573351896984 -0.061450262166
-0.592891215737 1.538759509780 -0.118857668633
-0.618708472877 1.542219007127 -0.078291154677
-0.631142610496 1.541318719305 -0.069060911405
-0.581890563535 1.564575642355 -0.085312489033
-0.616094051139 1.529317593573 -0.155045706377
-0.585211925847 1.555589794722 -0.110017983682
-0.599811827573 1.511060839598 -0.108164793190
-0.666932509857 1.544464168131 -0.056833681265
-0.638040738593 1.538855058420 -0.099821164557
-0.923431802149 1.330480681283 -0.266825688428
-0.900107248520 1.371696291341 -0.227136564808
-0.889905879209 1.359940559882 -0.252548721491
-0.903690500152 1.347513063350 -0.250654051742
-0.869408381234 1.354052430631 -0.228067373155
-0.910672728040 1.470813919410 -0.167961983607
-0.897267999093 1.469594587289 -0.166594999215
-0.930595920025 1.470396704152 -0.168017841262
-0.914954410915 1.433420919431 -0.159665212379
-0.913772904783 1.470496943646 -0.191658999374
-0.876495005724 1.423941323449 -0.167174776185
-0.903627369590 1.410095393769 -0.148876523623
-0.886914945788 1.388600725997 -0.198420394047
-0.853244307156 1.477056008947 -0.104500177087
-0.891485689741 1.479321184108 -0.093414062805
-0.860522763494 1.461795875215 -0.081834987718
-0.895972071018 1.458649246492 -0.087247032721
-0.880755081230 1.460711402691 0.144015765459
-0.913895769378 1.452550233209 0.113954408258
-0.905886168625 1.462463754958 0.190346146682
-0.904525387164 1.422421393332 0.166311397051
-0.901773096128 1.493068220498 0.162880995588
-0.906870105564 1.500297348083 0.072779762216
-0.857627462496 1.481362430985 0.111184469615
-0.924772585281 1.487189942573 0.068923186410
-0.915712909023 1.521239703074 0.058826285926
-0.896914587432 1.366530463408 0.217078209311
-0.873080460703 1.393357327636 0.212410979384
-0.908579134895 1.428262356292 0.214786591174
-0.916135779833 1.448880911724 0.181304459146
-0.894080818204 1.421412898557 0.187086699201
-0.873141363331 1.425278471180 0.190105041904
-0.872082012038 1.375108658863 0.199668826726
-0.873956463863 1.428867081712 -0.138119795881
-0.863330893920 1.451224243269 -0.121529386351
-0.913489118250 1.201047078301 0.358630872721
-0.914685738063 1.195284668893 0.373646432937
-0.888240996444 1.150259154123 0.351832280353
-0.919689389970 1.158378266914 0.324951657488
-0.913618839071 1.125071714975 -0.350225519762
-0.934590439277 1.160960032891 -0.361243357558
-0.940997104023 1.152991073324 -0.346988996343
-0.928063008504 1.127770433181 -0.326957742109
-0.902113925238 1.157837674970 -0.393522961280
-0.930861447878 1.072560549429 0.313397811398
-0.920028376615 1.103653155099 0.313734283247
-0.904613509952 1.081808471168 0.297796868305
-0.909202004268 1.451891359961 -0.035156772959
-0.907709733200 1.486937931576 -0.012662401431
-0.869545454723 1.485701630127 -0.003469545461
-0.888547016671 1.456622155910 -0.008353747227
-0.870524241471 1.484697293152 0.043450945636
-0.895037309312 1.496362251930 0.023045825875
-0.948609436023 1.464296906308 0.025162131624
-0.893440920466 1.447554861541 0.036457968388
-0.881171570598 1.513276484787 0.018496606621
-0.878428520081 0.873928271807 -0.069703105524
-0.871795845512 0.886726170276 -0.073198561241
-0.898929395346 0.860534951777 -0.045354036722
-0.909321463287 0.883409418731 0.072721331262
-0.953458154545 0.859115046680 0.071612864706
-0.867623719920 0.886830891112 0.107125543577
-0.907494549148 1.064405229696 -0.295345106578
-0.943645338356 1.086080927735 -0.302806020264
-0.877611018790 1.090421962813 -0.299257272036
-0.915417339403 1.346398665016 0.217897742861
-0.913060643045 1.343858193403 0.243040723658
-0.913124617907 1.349961912786 0.248654567370
-0.895266873830 1.385027584969 0.235349474571
-0.904371723113 0.958686564679 -0.199010350847
-0.881920643832 1.020389954350 -0.254381705369
-0.902208720956 0.940647726269 -0.240798597156
-0.902606160476 0.971288666920 -0.247425586300
-0.901940238532 0.837850347776 0.048345500657
-0.940434165122 0.873424304072 0.057512660626
-0.912367370166 0.847977488724 0.065828422326
-0.895846656173 0.849914819346 0.001239972333
-0.932091623370 0.857562836121 0.008388938320
-0.879768099580 0.853029707669 -0.044626535998
-0.883233316240 1.003700367298 -0.270414429242
-0.953732488692 1.073084387812 -0.301594596561
-0.897652583730 1.004504210296 -0.267220017387
-0.925568338248 0.989349206983 -0.256522485300
-0.859334318075 1.397854917429 0.160957661054
-0.836224302811 1.431561540682 0.168412495272
-0.858317410766 1.405471667575 0.194471793947
-0.888960171011 1.403356234704 0.152022674929
-0.836484485360 1.424021967670 0.169245888928
-0.821849539130 1.361094435009 0.225091263971
-0.889325629533 1.393498968054 0.189279697278
-0.870786278750 1.426901906495 0.155070227182
-0.874994132872 1.436587477724 0.112872751146
-0.855325059330 1.440003391086 0.112895964621
-0.826601390923 1.454438136563 0.065651173437
-0.866164252183 1.447671079821 0.075846914361
-0.843293912021 1.463062118733 0.091401777536
-0.906917760849 1.463251435836 0.063334628885
-0.856511661288 1.479823631713 -0.050540661998
-0.853111771224 1.464137690667 -0.109857916963
-0.849686106649 1.464908746089 -0.075864698895
-0.834066888562 1.461193174325 -0.077835687610
-0.833595783420 1.472847638943 -0.034424763091
-0.868514709084 1.475163065791 -0.080228799788
-0.881723921424 1.463136435906 -0.037936913212
-1.028189048943 1.110368674195 -0.150369505825
-1.020636501817 1.080982611661 -0.157917988834
-1.018735608730 1.100464857604 -0.155193860261
-1.016934533386 1.055622150447 -0.125210108294
-1.021875637386 1.071391591602 -0.134859567015
-1.046779272004 1.035083978907 -0.090378047483
-1.011959646419 1.055204125988 -0.120135538397
-1.043029878825 1.055782640587 -0.133587880796
-1.040949892432 1.041265845493 0.114733440401
-1.002767063242 1.075568452363 0.114227856650
-1.015694368845 1.045734455623 0.118798913779
-1.007690331069 1.062469371930 0.137593134383
-1.040848473128 1.039080684327 0.040047946394
-0.974255469252 1.027712919488 0.081542770679
-1.038553738346 1.036472695592 0.055035776137
-1.010612282021 1.016542832364 0.055827859736
-0.860985055627 1.376662990490 -0.199438030780
-0.874746115370 1.389508489532 -0.218511614933
-0.832986404160 1.369546729844 -0.194878712925
-0.838290206459 1.412451683298 -0.218952045628
-0.859075965083 1.414017551999 -0.166783044316
-0.836444197100 1.443961879082 -0.118880665583
-0.866554747097 1.463342116670 -0.177552231379
-0.866963297957 1.438656353613 -0.196087358705
-1.024431593532 1.108341270616 0.155635945912
-1.020903655625 1.105676106812 0.150983638679
-1.015254025686 1.093442394975 0.142573038652
-1.013140308595 1.112377730420 0.167625821671
-1.029873946086 1.153276482481 -0.166508617858
-1.049306908990 1.132927080637 -0.174620473080
-1.012646625461 1.166372260957 -0.114996437130
-1.031066114832 1.200119577996 -0.196231345247
-1.035321616584 1.165733895167 -0.187103443652
-1.021919647512 1.186918776502 -0.167549630282
-1.044563842970 1.172362021686 -0.156177066897
-0.880350960742 1.322642546366 -0.251215966929
-0.875612670569 1.365863107813 -0.226677403254
-0.901882674766 1.343511580978 -0.271065199615
-0.837687497680 1.342137895017 -0.242464648618
-1.025094696879 1.002182950947 -0.012908262242
-1.015489398344 1.017185662898 0.050285252390
-1.022364168406 1.005678621951 0.014484486910
-1.025491826739 0.986720024741 0.027393324351
-0.994196230758 1.093287728793 0.131902567227
-1.038204740210 1.068783315351 0.162124333345
-1.002605704904 1.115345926082 0.188177195025
-1.074787513976 1.086444707542 0.137082792719
-1.006386356649 1.403586875576 0.223996293726
-0.973381362663 1.419087607009 0.194987023351
-0.989759540927 1.441084737884 0.188858101674
-1.015575583426 1.440426154394 0.193144876911
-0.990753766146 1.419291291659 0.240034255802
-0.987152056493 1.423900111392 0.211997977151
-0.973657483575 1.469906309236 0.183183895772
-0.951469063619 1.444247543100 0.196301027729
-0.918239740377 1.448799769721 0.204795625353
-0.954766718602 1.463091358740 0.184293103127
-0.968677010417 1.505542543825 0.152036274331
-0.934682241383 1.456131181674 0.219077353657
-0.962720391069 1.480062344102 0.178085528118
-0.975824989387 1.204488731146 0.349549397708
-1.020400883033 1.237085826619 0.327066283085
-1.003461731120 1.210273369411 0.358011546387
-1.028556910259 1.215148105131 0.336157178754
-1.020428709422 1.245129433459 0.310090640261
-1.004013958499 1.249827651235 0.328245573075
-0.957087337130 1.213190939706 0.354999646774
-0.938935641943 1.204311978596 0.342174918995
-0.930777939914 1.220240547447 0.346330849452
-0.965156109135 1.220446670240 0.334772127353
-0.954558665667 1.205600495449 0.353144969682
-0.914395520301 1.192507786534 0.340287652764
-1.007080499469 1.386772031861 0.223040813025
-1.024245613024 1.386662098778 0.214591733930
-1.021131236104 1.404889280616 0.202498841795
-1.021729260933 1.379776418647 0.214296628894
-0.987922302970 1.391167750957 0.205985452008
-0.985753687005 1.394319706988 0.210726609317
-0.990454064966 1.334037705887 0.299172053427
-0.985914203935 1.337129389320 0.267603579266
-1.017521845012 1.346292221193 0.267634576476
-0.980525405825 1.349017027614 0.252643542072
-1.038285287068 1.356418797747 0.258335941344
-1.004760989765 1.359355514495 0.247041341659
-1.020260742605 1.294422079863 0.280611676355
-1.030970001759 1.277951633128 0.266181353016
-1.009612448952 1.239663109186 0.285225198019
-0.984018204894 1.305507208073 0.284313409729
-1.057157120035 1.277158028358 0.271206154550
-1.002710746991 1.286936701960 0.305429786491
-0.988053615253 1.280073640474 0.296971583403
-0.937259109146 1.418890284809 0.225004551097
-0.959466221355 1.391589974675 0.270821518638
-0.934945116364 1.391126353601 0.215601313454
-0.914380860224 1.357633864940 0.236307470196
-0.949883193547 1.419697544904 0.255369077505
-0.958741818560 1.345924188221 0.241555058744
-0.927224175612 1.333181557906 0.242534952808
-0.912094360225 1.302846546357 0.262689493950
-0.918951471026 1.331738310418 0.267825167315
-0.946853832303 1.334352118676 0.257731125207
-0.963479723462 1.387042753088 0.270922134311
-0.989510003199 1.289723534876 0.292948172153
-0.964452886681 1.321706426006 0.286278437571
-0.968357142159 1.296247808755 0.285522447720
-0.940814963375 1.294697749245 0.347964004013
-0.966443722342 1.261095957006 0.267317147717
-0.945901266460 1.305994588011 0.310951781314
-0.933074284626 1.251357537654 0.309746975344
-0.943834910625 1.239213319650 0.320804305225
-0.847360722472 1.344707490656 0.233372575966
-0.848891000919 1.327709203835 0.246057904615
-0.871625570048 1.316055008841 0.235564638721
-0.863268453909 1.335582592988 0.233735627318
-1.001555855703 1.229950313097 -0.148093620936
-1.002696812866 1.222050703029 -0.196562948144
-1.048382970037 1.223679230229 -0.138233617907
-1.054402155960 1.232498609930 -0.158937923836
-0.905050778851 1.164455537620 0.299828272202
-0.832808186568 1.144298855070 0.322221175987
-0.859076207378 1.102196210668 0.299817644109
-1.030362447755 1.317302775009 -0.112123177705
-0.992382495729 1.290520158261 -0.096520431699
-1.050981840067 1.274538698036 -0.111460470814
-0.991212954691 1.338663527872 -0.107778900684
-1.009407619770 1.265787344104 -0.128061076451
-0.989002404305 1.257159304290 -0.110628662689
-1.054167052499 1.258469847738 -0.168520155062
-1.046066910151 1.275593659903 -0.130134436154
-0.858088758627 0.834638403587 0.049221152972
-0.868702785643 0.865855512781 0.034967526379
-0.873009601428 0.863422404771 0.029835692938
-0.886087264985 0.835690974807 0.016508572084
-0.847496719911 0.879561687744 0.089824744289
-0.890030541716 0.879824663556 0.078833619428
-0.865463410443 0.850568672699 0.101311416226
-0.858627998084 0.885818485612 0.112646342176
-1.010293685639 1.448881133121 -0.207430420769
-1.008452942529 1.457645759697 -0.200971522773
-1.012010075646 1.465390753018 -0.215154408989
-1.033216192527 1.452253115639 -0.204853316508
-0.984283873301 1.424805967520 -0.246022679207
-1.010276854599 1.457557099698 -0.170825139528
-1.023824874488 1.434702609457 -0.204606525983
-0.994303350674 1.204104851325 -0.321120238600
-1.015555993575 1.216997263886 -0.287495605155
-0.973393919374 1.173676353615 -0.328617335512
-0.996179687537 1.219447029626 -0.325022148464
-1.020734843919 1.178632452669 -0.321925534568
-1.025011791262 1.214738160293 -0.314836733953
-0.970128486968 1.228343612181 -0.314139075366
-0.944795793254 1.433861728347 -0.198212725812
-0.961810320178 1.443870878525 -0.208836420285
-0.935677935462 1.401234715949 -0.249291667922
-0.921345977493 1.449568340834 -0.225018296858
-0.931098807154 1.489057359772 -0.205131010017
-0.946710373830 1.415011890650 -0.257578974402
-0.942344378161 1.399535724966 -0.243883877885
-0.963674272785 1.445650608453 -0.192560716552
-0.942021263364 1.349695654702 -0.263377673334
-0.922216072652 1.399107321014 -0.232161321851
-0.940182839433 1.398126896158 -0.232327250678
-0.962413675739 1.346606368154 -0.247338353329
-0.940983784003 1.385471037923 -0.248166617815
-0.960531775258 1.373598623946 -0.245874433880
-0.959240721933 1.365696778385 -0.261459198794
-1.011845106479 0.988941904012 -0.078414436691
-1.010470208312 1.020633897263 -0.099522139650
-1.037251419469 1.000332085831 -0.033208103177
-1.006037534240 0.996394715947 -0.064769523147
-1.035784643699 1.340725929849 0.038750830982
-1.021354649879 1.316041888764 0.023659581192
-1.025715771853 1.345851059091 0.031803623926
-0.987902976209 1.320124786348 -0.008756194597
-1.046280941222 1.000307486242 -0.016859061215
-1.012948921761 0.998052844414 -0.025575535562
-1.045711752529 0.996228096064 -0.035873036659
-1.013964871752 1.320061042624 -0.080910752048
-1.025896371509 1.306386266406 -0.076356848004
-1.046784867022 1.319029804348 -0.032751826865
-1.029809277167 1.314399434564 -0.073299315963
-1.032546787177 0.863662576773 0.122808275172
-1.013343541933 0.878230066997 0.138826930482
-1.011851822954 0.886626147881 0.161555129514
-1.017027037325 0.841190676143 0.172207793033
-1.035117693158 0.852187248334 0.161246638330
-1.024343920190 0.844772462921 0.156343133279
-0.974145291726 0.860458161654 -0.147153260834
-1.006625589266 0.831268246550 -0.116739251020
-1.012712652855 0.858812800520 -0.128635256994
-1.002906189018 0.858003902411 -0.120969664436
-1.046365160602 0.857292056027 -0.124924724149
-1.008307643053 0.859165948642 -0.132842016748
-0.985916706737 0.863419940608 -0.069531186923
-1.004238269176 0.865264317868 -0.088499115049
-1.031887528311 0.877423914160 -0.031527612464
-1.015409483481 0.837936093822 -0.048227449342
-0.994697463060 0.833832155356 -0.094449512012
-0.967470378360 0.849615320715 0.114125948568
-0.979565385428 0.834084213243 0.090188898630
-1.037906707140 0.818906157771 0.115981435893
-0.980141293361 0.883717256770 0.123567813991
-1.035919303741 0.856749424047 0.075408189805
-1.022901063379 0.843451345758 0.078858605897
-0.987620057826 0.902298866982 0.063110882193
-0.988192610140 0.848222082309 0.065927155661
-0.977090101437 0.845079410680 -0.029501337847
-1.003481468697 0.887065200504 0.073211013414
-1.008034571068 0.851537992064 0.018427965059
-0.985985092049 0.858109508310 0.002825583308
-0.992812469141 0.854712033406 0.017468818698
-1.030140991709 0.861935585092 -0.010753114990
-1.018451360313 0.845539325270 -0.024644610166
-0.970036122207 0.882732023181 0.005691435378
-1.008977053499 1.344421083368 -0.010437990140
-1.036126708690 1.355421253309 -0.002992341802
-1.035193741377 1.319115327691 -0.019345905935
-1.016240777512 1.334705229903 0.012027596676
-0.855088969977 1.465853964278 0.017152565246
-0.847405677688 1.518029256891 0.055436429138
-0.870918282250 1.499488151959 0.068879267186
-0.856009541943 1.487311971486 -0.001033887758
-0.857671537090 1.468079373098 0.032170030497
-0.998250566666 1.116154119239 -0.324552368862
-1.043374582063 1.112653761040 -0.358541347703
-0.979914227636 1.130541335567 -0.332163230290
-1.048107298689 1.109072748394 -0.320756393878
-0.979522137528 1.145107827755 -0.348641620403
-1.014186069012 1.059743563210 -0.294771701169
-1.009870033023 1.066747128881 -0.261806211951
-0.942215799549 1.112617556255 -0.327253188490
