1.648028347174 15.371258236505 -1.496818370386
1.675461886852 15.345196393070 -1.606836629904
1.485947468424 15.398720490288 -1.701221479670
1.557673200439 15.295471416942 -1.741940160678
1.541645459458 15.397616930006 -1.914175424504
1.466591953609 15.262277080619 -1.957417800500
1.590082871622 15.347330162368 -2.082143775895
1.498924541774 15.381765917416 -2.118398574560
1.477730506026 15.278410531428 -2.256477421566
1.395580257520 15.310413827373 -2.392716919065
1.401036582753 15.208883526210 -2.486124170127
1.334598549263 15.200270787602 -2.550183812937
1.563254437066 15.231243327754 -1.537221344018
1.541033400345 15.316759532277 -1.652913125390
1.531071906406 15.330115286060 -1.817644415324
1.547923980755 15.296799966142 -1.770366468910
1.404465030997 15.182403936506 -1.922278717348
1.301031947711 15.332353870404 -1.859394905518
1.444503590207 15.236612844547 -2.174942731622
1.462121782784 15.329166135274 -2.307214678825
1.439495931457 15.279686023431 -2.323259076490
1.369844927024 15.294052496597 -2.397732480883
1.310577499047 15.237660400669 -2.425308541759
1.367599390817 15.283648939405 -2.552966615620
1.406027139942 15.301752295608 -1.574544065535
1.405613852543 15.269685859090 -1.670608443511
1.403002028847 15.432983613043 -1.789088246217
1.375113421726 15.425077560494 -1.858205244737
1.352661733101 15.301333692953 -1.855018550940
1.381557165282 15.316618837481 -2.023318218904
1.350243343296 15.338998483968 -2.007634079302
1.340720364332 15.295789561126 -2.240957976169
1.270123744667 15.307901650260 -2.347352309694
1.264267057601 15.289188583712 -2.455313453602
1.259543682807 15.298294175075 -2.457339449567
1.202270206760 15.266194478962 -2.554163392723
1.327213675456 15.383150762393 -1.603154282651
1.353400702641 15.357657341236 -1.579491456384
1.258769870276 15.357290444221 -1.716313176562
1.267834884345 15.320899901874 -1.770732414546
1.250368456811 15.345656780054 -1.876840029253
1.330942319467 15.300526940170 -2.016833627535
1.201523475719 15.312884852118 -2.192138957528
1.295277701094 15.205442621203 -2.228001471364
1.179834891890 15.196491092143 -2.283563184752
1.198739903183 15.233368231366 -2.414566217670
1.127826203965 15.194847903231 -2.505725858602
1.043919944528 15.167583266242 -2.625127486175
1.357271422518 15.339762781323 -1.569146913613
1.362375500131 15.219708720820 -1.620298257701
1.195968107560 15.328778048628 -1.740770905399
1.210680014971 15.312116429797 -1.778339251596
1.217673044602 15.366943332310 -1.936782275503
1.096051686037 15.408640632926 -1.980391995189
1.227790818489 15.343907192562 -1.987816388999
1.168736778579 15.297863260802 -2.315511718495
0.937461487702 15.218704965569 -2.315180503428
1.127164434319 15.294819123177 -2.408310128025
1.101235446830 15.272641983720 -2.544849603368
0.995916929919 15.226409740954 -2.555818755211
1.187235487062 15.323766008154 -1.573691089454
1.257001260508 15.363164402937 -1.607149159427
1.101733978787 15.392224603750 -1.714890850579
1.186050592776 15.326630822166 -1.774851901792
1.033473935636 15.346655713498 -1.895607824569
0.986531764314 15.348081218672 -2.083629664702
1.115993507029 15.241274656072 -2.062490242948
1.040227329118 15.394991845315 -2.119960979232
1.072114143631 15.315144153000 -2.295787545802
1.033134708617 15.287318257718 -2.385652106935
0.877433215066 15.201733055170 -2.601551842325
0.858041269917 15.227983604808 -2.605321506670
1.122298896339 15.429943851197 -1.634795376838
1.064805154360 15.399952434751 -1.723903826227
1.053706126732 15.283091986761 -1.805310441186
1.021547510559 15.307778601741 -1.766037826134
0.988467126812 15.263595098582 -1.919341283051
1.125020152415 15.324396436665 -2.073580840113
1.044609808789 15.260955771686 -2.135465953526
1.064113763067 15.247533189582 -2.155549429098
0.892756841104 15.296740766904 -2.248609041900
0.865608438765 15.208966757758 -2.389562852587
0.822544716308 15.334384466713 -2.394687600551
0.731053863495 15.301922845024 -2.576008025162
0.985526407876 15.236844251468 -1.512879384211
0.965578894705 15.310623260917 -1.601893776991
0.939757871024 15.401718082756 -1.666471994207
0.910836139435 15.295925306707 -1.919826782649
0.900747716396 15.190417612693 -1.932620819718
0.938347091416 15.383481885639 -2.051956037437
0.916971857921 15.315855415631 -2.173729357892
0.877995640454 15.296937947840 -2.140287499310
0.852397611548 15.270702024207 -2.277610324299
0.825264020239 15.235348317183 -2.427437783269
0.781797103486 15.113624289483 -2.438840388765
0.793063167904 15.126608873843 -2.622763213341
0.785787968367 15.427504465913 -1.536147342370
0.878482099163 15.395325576351 -1.578750672116
0.893292480852 15.280077648376 -1.765787448247
0.850180181220 15.382485441696 -1.780806813327
0.844663349576 15.264115597357 -1.925732418812
0.788124234826 15.371147496307 -2.020595089610
0.827281114291 15.242567741337 -2.138550679438
0.778579606066 15.235874189726 -2.171682548798
0.708023646179 15.240735933452 -2.296885716964
0.715251498556 15.333307995549 -2.443191358016
0.705293786386 15.369957659588 -2.483625995373
0.656479452072 15.171208237346 -2.630613032847
0.786961650865 15.358775307174 -1.579654447148
0.676103068507 15.374054654420 -1.687788273087
0.785112348774 15.324468029099 -1.635724566047
0.805247419337 15.290727564230 -1.854896025623
0.685649256092 15.317968237737 -1.932221478776
0.673459057688 15.341925608292 -2.021930509109
0.674811266901 15.308553636670 -2.073783198056
0.711410706877 15.180748695590 -2.210787176232
0.617926060413 15.227711544675 -2.256413329611
0.788040684519 15.266280683425 -2.375827601225
0.545576367483 15.288790890609 -2.381422374243
0.431381922504 15.226230495259 -2.593874745127
0.660225425715 15.311301901766 -1.530763463028
0.737592196807 15.322722484747 -1.553720455266
0.701094272370 15.313163702452 -1.703041045174
0.653556631347 15.325818780361 -1.875174282017
0.729145424447 15.288961267652 -1.877365918579
0.598945937297 15.390029184023 -1.986911096646
0.703967143895 15.261243771824 -2.172987722137
0.655481068457 15.280803978342 -2.173713734365
0.617680938999 15.254161052783 -2.236952257697
0.574208388411 15.269756023662 -2.493879005561
0.540792691864 15.307438971220 -2.392016690618
0.436599906127 15.253089095728 -2.647359301708
0.591670513537 15.390245855862 -1.549714382816
0.451857205489 15.298024661916 -1.673624761536
0.598342898906 15.456907043693 -1.822679015889
0.467172824020 15.259990258889 -1.831786276105
0.505663333967 15.371666272202 -1.986947910807
0.596020838989 15.286066739280 -2.030976048839
0.606818713226 15.308357350550 -2.128354209031
0.459246090379 15.302334121918 -2.221747593561
0.414557941214 15.254504331055 -2.323677176717
0.425153407770 15.213778722373 -2.463577961785
0.398630046037 15.145217415309 -2.482129532924
0.343993078385 15.244106305552 -2.571033648794
0.360566385182 15.356662155744 -1.616268969255
0.552279965833 15.326261116436 -1.520807415115
0.501340486822 15.377109735728 -1.690294499584
0.466511719715 15.396777969530 -1.800146550123
0.359734951320 15.347775629115 -1.944978290961
0.465310388067 15.300342442536 -2.027790432580
0.427936253889 15.291564072316 -2.007077043887
0.510172479388 15.243644753801 -2.218321039136
0.266121886806 15.238194279842 -2.284604091721
0.407844514612 15.198027210134 -2.380071606615
0.451982985003 15.242257739014 -2.502910538270
0.253122818359 15.341978849077 -2.639542276940
0.350240142164 15.386017115625 -1.618441039625
0.327863859741 15.375219074130 -1.661883430024
0.365747869143 15.438089406558 -1.769300877132
0.314466518116 15.416413129306 -1.897892906289
0.388163897992 15.258470268322 -2.027043735912
0.472602353032 15.243803476726 -2.053684484206
0.289491466329 15.372065248202 -1.998634618867
0.342151646278 15.281849524516 -2.266629629950
0.321896212579 15.167400803672 -2.344015075512
0.296424125872 15.294583081888 -2.401379277698
0.263620602499 15.272012530660 -2.569485476962
0.158255533135 15.188417789155 -2.562600693384
0.216956646515 15.203126929403 -1.565881544703
0.277759803624 15.321327143051 -1.661164131883
0.309278047505 15.306287249728 -1.725397398197
0.331268714230 15.344922513928 -1.788620173056
0.178233602609 15.183636393567 -1.988088568513
0.329785362894 15.279129852175 -2.012557154266
0.287201250132 15.203869173490 -2.250294994348
0.342701624057 15.332591745837 -2.239656778808
0.271891894415 15.242174549701 -2.405858399983
0.225733550329 15.228680014573 -2.400674370785
0.060556594943 15.242019098988 -2.411997061695
0.073638818076 15.240154378118 -2.585498683801
0.197661725234 15.410581607391 -1.578451537521
0.136296231933 15.313371667592 -1.615487774267
0.270154270209 15.342161330213 -1.687801792309
0.141406952151 15.296110025379 -1.842933791558
0.178072269219 15.332376318386 -1.930014285760
0.192827746545 15.259974001563 -2.123361471983
0.186213801353 15.307196419966 -2.208471666814
0.250065101471 15.229150919960 -2.210386079097
0.150381543810 15.255892364337 -2.254956681324
0.207025684576 15.228491993711 -2.334629439503
0.127940103191 15.255419435924 -2.438116784464
0.095346497586 15.267025632674 -2.437759973882
0.078334525682 15.287032231717 -1.493988919663
0.120463002987 15.332326692994 -1.670943399651
0.214742906388 15.337284424661 -1.777426929441
0.067123088447 15.338555508417 -1.799258631351
0.153369258186 15.232449110920 -1.904158462108
0.113366730714 15.328186314308 -2.020332314621
0.084748897006 15.203742345605 -2.152152132398
0.099620823099 15.169391042126 -2.234307236762
0.044348941861 15.214315074989 -2.313521732949
0.140219827584 15.214303098710 -2.401546614191
2.721246321446 14.107935631339 -2.326359100738
2.749381391633 14.027414514906 -2.312256570438
2.684733148354 14.070622860798 -2.299962805681
2.664465420857 14.023360379116 -2.272173986582
2.789388777584 14.125803247700 -2.167197603566
2.663058868719 14.041251763962 -2.182427786664
2.772005931763 14.174976815881 -2.050227632845
2.770271986445 14.015048271262 -2.104025603054
2.839864680186 14.268905302241 -1.934150265834
2.732254238569 14.004449786160 -1.959090381512
2.842559678539 14.159073511115 -1.922619624813
2.775004892692 14.057819673474 -1.854409294914
2.904539079706 14.217033669108 -1.822239599086
2.811958719405 14.084083041894 -1.765794714481
2.809387136684 14.204915259563 -1.726695769215
2.948466593490 14.160219253792 -1.816271411287
2.937322789933 14.303605414767 -1.671445353107
2.883090791172 14.156041825917 -1.667416742603
2.919892440676 14.232094360067 -1.533236695115
3.025025134703 14.207433844967 -1.568682729208
3.033280355669 14.333619892191 -1.402619009938
2.981983623232 14.140563320204 -1.477490902225
3.086819877603 14.235415447581 -1.362231762169
3.040848301266 14.108901562446 -1.278075279332
3.103056607365 14.274896856108 -1.399701042509
3.140813300789 14.200288153827 -1.438242285605
3.128932732455 14.291734032618 -1.271797001035
3.136454406612 14.160721130546 -1.172334041448
3.298927865141 14.343232332289 -1.229521395422
3.247873387304 14.245698226148 -1.097032385813
3.281889093567 14.287387475034 -1.169485286553
3.266568518470 14.272026449169 -1.045950383528
3.279087013700 14.435637038440 -1.103361982476
3.310027970213 14.257909017041 -0.943938614897
3.393863506705 14.385673648945 -0.972520624484
3.354341873078 14.236993075034 -0.983949509872
3.541527939619 14.368887581932 -0.834237002657
3.380686456707 14.302236757628 -0.856617121737
3.469189903177 14.334412381833 -0.746467269885
3.506310196281 14.334527590046 -0.791251735685
3.554954277248 14.396775100602 -0.797379216606
3.581715243089 14.320141120580 -0.764015644746
3.707549329775 14.457263260385 -0.727584551681
3.607429964570 14.181040613063 -0.701619344255
3.905310044923 14.400027234137 -0.618583554919
3.781915707676 14.260637314685 -0.654590432161
3.949848452445 14.424764117488 -0.607105755449
3.889365478331 14.307846492772 -0.576881600621
4.021517052253 14.433882957506 -0.639613272780
3.904632162664 14.367588572354 -0.641919926858
4.052388636040 14.422903750068 -0.542663386325
4.024797859585 14.339148405287 -0.532307577482
4.053290437795 14.297920663254 -0.495460704307
4.129717404394 14.354388880096 -0.487623759466
4.235114805887 14.459229072576 -0.505834128478
4.292323502120 14.324783182976 -0.435556067648
4.436354402839 14.411106827461 -0.411093651508
4.375625278453 14.280321204139 -0.369081430596
4.471504671935 14.457073005167 -0.500083834925
4.434193531974 14.288724930407 -0.366286439488
4.464687552490 14.390573341454 -0.431384265540
4.550670275727 14.267198681451 -0.277397383581
4.643910380756 14.422786527643 -0.488459431498
4.662177620144 14.357232917536 -0.401264247597
4.714061648150 14.485634117520 -0.405227460670
4.715334930700 14.484679764936 -0.434096720673
2.657052531651 13.841408334943 -2.264312890482
2.735213502779 13.941433602020 -2.193057668240
2.748200658741 13.913521021787 -2.109094050052
2.822185877223 14.011525662596 -1.966865728155
2.759536108238 13.974551542200 -1.929542665961
2.775985998192 14.038959284234 -1.825078371188
2.849131055972 14.045975060454 -1.717931074906
2.818177000602 13.938795104602 -1.736369322347
2.923923682504 13.951181138609 -1.631650337149
3.009858586434 14.032162763719 -1.573052170557
2.928974840632 14.069945409509 -1.349694585387
2.941854856184 14.082468114951 -1.268000235399
3.002577285206 14.173801466569 -1.279725924293
3.192875086154 14.163430028980 -1.131322457064
3.379649170704 14.056521455697 -1.035067128850
3.249607526917 14.149403719950 -1.026429311616
3.296021171186 14.159400614247 -0.991936595365
3.277010584563 14.118422487258 -0.939446287324
3.382521312762 14.242028234384 -0.793453722347
3.501053523058 14.172855451361 -0.742253225040
3.595006651111 14.204841193425 -0.707018868356
3.671692865073 14.210621056628 -0.699207269717
3.799726239698 14.196674660333 -0.647214972951
3.735821855534 14.221217792340 -0.521663929559
3.958812482020 14.277454932158 -0.638448406139
4.114963016591 14.194635379954 -0.500280998643
4.148610180697 14.238049284342 -0.496535430765
4.249319783027 14.286912997348 -0.355223506807
4.319968961518 14.232289930219 -0.350957462355
4.537131799245 14.342392953377 -0.425534789310
4.448573969508 14.228541632044 -0.477481283085
4.519141808992 14.238521232902 -0.384950953316
4.654345146070 14.236289597126 -0.349305620510
2.748372146514 13.750738494187 -2.251894301424
2.647902772326 13.876752592165 -2.180575024044
2.748871104502 13.801115215889 -2.105629165571
2.708108093559 13.818875952166 -1.972768100122
2.822876481087 13.831904545280 -1.990413254900
2.685412655708 13.875360791570 -1.848934340855
2.861570178016 13.923601517369 -1.774640331295
2.925491070898 13.923525336390 -1.652796211480
2.827032645162 14.029819063336 -1.644617617630
2.947391906014 14.028736785577 -1.520915544990
3.006724003094 14.087791939759 -1.483939510376
2.952355777439 13.928194359633 -1.182469775550
3.106899801749 13.997375175717 -1.292431562558
3.269988905646 13.930127151167 -1.137759077294
3.288166138266 14.042781641377 -1.101822093660
3.221771365210 13.958859298443 -1.026270753395
3.300907353656 14.128644249404 -0.937770922832
3.413961692633 14.055618814575 -0.855278936587
3.536500284477 14.088194956503 -0.940638205471
3.590195333782 14.070319268636 -0.747966964540
3.562934800202 14.179770228563 -0.701116600234
3.663743245720 14.102047529828 -0.712576762408
3.759706682142 14.162865685542 -0.580944246982
3.985946771951 14.141366055496 -0.572517066609
3.962963738190 14.192815962865 -0.455581169899
4.147912147069 14.240117425444 -0.527461655010
4.204733225548 14.204425847932 -0.469704697525
4.204873120935 14.132867691208 -0.388381822185
4.453001599016 14.160090274578 -0.462603267512
4.457212399907 14.088372190612 -0.337586850007
4.538192961048 14.166622752823 -0.312062343604
4.536052482615 14.075665510750 -0.388418270103
4.678922365163 14.201095070055 -0.375242997885
2.828406708225 13.660171637542 -2.296272007126
2.601341938298 13.736990034272 -2.255038886932
2.791183150116 13.740324410338 -2.145863068071
2.710464055945 13.784432806706 -2.008948744626
2.721334985856 13.806503388529 -2.027117292189
2.828214181143 13.733331663248 -1.929720692576
2.835177426527 13.842941316619 -1.725146261918
2.911449880748 13.807697202955 -1.615377029579
2.881376678592 13.876461674453 -1.666842141855
3.006561168783 13.813797583549 -1.506098219625
3.009974240069 13.918085523358 -1.352259054197
3.021850820647 13.914932469675 -1.443377685712
3.061855465621 13.914265981267 -1.210250830686
3.068398984387 13.857635249747 -1.117501437859
3.111668280278 13.974725377698 -0.977703630168
3.268983343678 13.919013635498 -0.988408006705
3.434517804828 14.023855675796 -0.908558268865
3.411774968913 14.074087842930 -0.842765389562
3.459314169895 13.959918030320 -0.861065091230
3.545445969815 13.971211126234 -0.728932673666
3.633503933855 14.030211383263 -0.667655426390
3.661646959484 14.008498302749 -0.721920864638
3.805507562580 13.954940634531 -0.538993750534
3.845380153563 14.133269325095 -0.556655491977
4.064226052145 14.099236637056 -0.573979279308
4.019437177173 14.055910518532 -0.465795067443
4.126046311777 14.055269082170 -0.395302097198
4.243201896398 14.079839485022 -0.433096917392
4.347564763480 14.015320810593 -0.396357610306
4.453618084364 14.122187363772 -0.329543030240
4.533265554784 14.170075859836 -0.225505528545
4.660117176108 14.053076931690 -0.362151499985
4.683672558526 14.059454958650 -0.268646204903
2.681814138505 13.669499623519 -2.357316225937
2.649484622850 13.640024300486 -2.216165032702
2.649363726583 13.637111591590 -2.133693219897
2.781965661050 13.678143144257 -1.979262453669
2.714182139098 13.782695446628 -1.837017111293
2.730066019071 13.712108768311 -1.801989945565
2.724234087892 13.761794771528 -1.722661938100
2.812019448916 13.764879443625 -1.659374345001
2.902195859877 13.772077323356 -1.606380057957
2.931472588339 13.742364749517 -1.412280055610
3.065509011284 13.757296241433 -1.324011628124
3.022128268256 13.807118798895 -1.256534335296
3.003393119666 13.877361157803 -1.130353247234
3.215019032842 13.807316903028 -1.143001538531
3.179818290268 13.926914876364 -1.057725603796
3.201985466521 13.952928801160 -0.938613280319
3.264574735876 13.917425138167 -0.870143886767
3.485103793282 13.863980762360 -0.799468950659
3.511022303555 13.857746402936 -0.744126799572
3.562676778607 13.890866444841 -0.715405348354
3.602141337308 14.007532526496 -0.625450501745
3.656149905099 13.888323631527 -0.569283261279
3.741218822227 14.031689240968 -0.618188906645
3.850013983164 13.899736393470 -0.442822943527
3.930218057084 14.037583779713 -0.437339001557
4.144014975610 14.032703590961 -0.402452981146
4.174118893063 14.001239708679 -0.432647480969
4.238450692387 14.027872991470 -0.275896026487
4.310103593847 13.964230152140 -0.393600578314
4.375780352251 13.955001795045 -0.327035654702
4.503078504167 14.025868083225 -0.283853836594
4.665340468159 13.958713650969 -0.388495050709
4.710488060971 13.957073702576 -0.403817214847
2.736775718119 13.621936036931 -2.233396436059
2.625876587313 13.563277224912 -2.202449786269
2.723895130300 13.555169667660 -2.054687834313
2.752024787000 13.598355462578 -1.999264412483
2.644083537508 13.625828615722 -1.798555141241
2.753170095932 13.719832335907 -1.735143497387
2.914599361123 13.582680742721 -1.733967012154
2.805705251710 13.755512809399 -1.556470393476
2.864629648284 13.654437692493 -1.510189202016
2.967356193983 13.716714085274 -1.369553632287
2.947951060116 13.656907923316 -1.344164873955
3.021030139708 13.676337427819 -1.215590683365
3.099388651745 13.744593905037 -1.142581682112
3.181351008961 13.817417305891 -1.114671984774
3.258901983594 13.694366760571 -0.942161965914
3.181327241962 13.689363955860 -0.913208873143
3.333996978762 13.770902420632 -0.971996533959
3.376003918166 13.814068754239 -0.840087503989
3.418466654952 13.784115220935 -0.756506283163
3.523492570755 13.832529427775 -0.708555463125
3.646416374330 13.795508532040 -0.525337299188
3.804862141622 13.806061641426 -0.593927187907
3.768307933516 13.831842228186 -0.584092131315
3.937242228312 13.810117508480 -0.450876606708
4.065929496466 13.831435606650 -0.471764593929
4.070429024556 13.870350348366 -0.535065621113
4.161176336605 13.934343176829 -0.396201838607
4.197702964239 13.928883163709 -0.327575976427
4.375798935268 13.854772528418 -0.372102185866
4.425704598696 13.772276791865 -0.262043640106
4.606677193615 13.909569894302 -0.281723479070
4.564725726728 13.953624214846 -0.321720731022
4.659502397193 13.818384025706 -0.322712041890
2.745510423539 13.369653163942 -2.238837218558
2.718749200264 13.588970539076 -2.139895720586
2.712195443634 13.472100720245 -2.068569036861
2.728091843718 13.489526777103 -1.973119465474
2.749284142538 13.453089325021 -1.866666215015
2.874669061723 13.598120318400 -1.807463470534
2.813363153269 13.666594522451 -1.684772173164
2.830524437565 13.549859400922 -1.488323587508
2.912586164436 13.542677788091 -1.488926013131
2.847857807652 13.592784096403 -1.360235488136
2.965363947941 13.636241080489 -1.352108189506
3.075397072009 13.693701771946 -1.259693893230
2.970459963533 13.695315633933 -1.159538282180
3.099913940598 13.614020735408 -1.035789424081
3.204687639445 13.707645851477 -1.066348982112
3.316004440037 13.600558667781 -1.018475098429
3.341506369817 13.676573052805 -0.849069168120
3.438016156317 13.705345558013 -0.829995072425
3.557635440301 13.697616483896 -0.698167769651
3.566594103280 13.759453080981 -0.774074262249
3.590725752926 13.736087767975 -0.675763304456
3.744864143270 13.762190184036 -0.567817197373
3.778414772631 13.671490678387 -0.665660376402
3.915115214960 13.776496162918 -0.530720231489
4.100457694874 13.817260254326 -0.479475671045
4.064864946066 13.701094281414 -0.429495892099
4.191469151777 13.813708954407 -0.407706999325
4.272404563889 13.785156837271 -0.398532079628
4.332517617516 13.739617571152 -0.257598869647
4.416431145642 13.841107173058 -0.356823536102
4.521484674801 13.713482999587 -0.322288011432
4.635809732724 13.701460719852 -0.272780949098
4.803990091322 13.773301862171 -0.299641890026
2.656276611670 13.304181460525 -2.270381079336
2.735249213314 13.363815141317 -2.075468756227
2.650433411395 13.278264538630 -2.075723367102
2.693456995202 13.413857871031 -1.994522824948
2.636205103835 13.479337355874 -1.995269044886
2.812185770319 13.468280836891 -1.785211937579
2.818345041874 13.449598509962 -1.665294059851
2.788271798444 13.483212323609 -1.577419202771
2.955845956949 13.470968001194 -1.530474319065
2.921659899264 13.519619354386 -1.416513017471
2.917694660827 13.447735533568 -1.352353251520
3.043811055563 13.485390873804 -1.211823923145
3.083521508062 13.577897657174 -1.147926462784
3.072715621795 13.660224957552 -1.106540509593
3.221806572161 13.683327373591 -1.048981897631
3.318503632110 13.451853768090 -0.857553905414
3.314918696929 13.534099027599 -0.907462988663
3.334118310309 13.607552942524 -0.727467709499
3.461416170244 13.611133627611 -0.754571803035
3.467832841382 13.589942364098 -0.689545453813
3.547113043523 13.662476921074 -0.593657270455
3.768842825665 13.671563004808 -0.595354053366
3.804925483554 13.614623072393 -0.532636755554
3.853217885389 13.688147311285 -0.479583643948
3.964661753947 13.660976626015 -0.379617262239
4.059178717004 13.721748453621 -0.458456519615
4.091405571835 13.699937140510 -0.374338103798
4.232327025406 13.804809070439 -0.343910638544
4.377978058198 13.811503329396 -0.326063797852
4.373222036985 13.727901737845 -0.363816686882
4.419761513506 13.672663484045 -0.343728531545
4.624794353779 13.646454963127 -0.253064445866
4.762695373672 13.709245630149 -0.274312715917
4.687229198372 14.438230161030 -0.987268228126
4.739898773944 14.336673031856 -0.774568465910
4.774074285213 14.439931856033 -0.703739919518
4.644436265940 14.389718142529 -0.598145312095
4.857982841639 14.486343782466 -0.484695279541
4.639052633573 14.407670169811 -0.908542117904
4.681556879697 14.320937162205 -0.822741831292
4.675266329130 14.413806225528 -0.546144382342
4.628443775358 14.399745672394 -0.501730765030
4.633803904943 14.413965923425 -0.576906424195
4.615262117336 14.378848658812 -0.812909276031
4.545618170389 14.417079879901 -0.853040695703
4.565888929093 14.428138978144 -0.776537705222
4.560485410595 14.372845875408 -0.656248170064
4.472269747787 14.463278898732 -0.509690193778
4.525434960051 14.397930093689 -0.901386983816
4.471641102868 14.307011853696 -0.804522041300
4.400072554504 14.368659543889 -0.747113095100
4.496589339754 14.417267100101 -0.591967978467
4.380958388272 14.461757002736 -0.447115997718
4.520166861244 14.322368451642 -0.862262992605
4.307406605595 14.342279517133 -0.705467785290
4.447177562813 14.372640938634 -0.719851584589
4.419091518228 14.370126007710 -0.678269641419
4.340429844419 14.407574548241 -0.518358044502
4.440828139512 14.382572952416 -0.882154959756
4.337018444551 14.357749036975 -0.840927285575
4.358987751546 14.397944530812 -0.688314461782
4.358451705547 14.405472564091 -0.648939083129
4.244556610567 14.490994963932 -0.570299732482
4.360248184921 14.347128235526 -0.934649183221
4.128547144599 14.317982785054 -0.830431058219
4.193453316750 14.374674420181 -0.763274382411
4.208944986681 14.352431536914 -0.585294085504
4.149966719116 14.404857682429 -0.637349759929
4.107788108297 14.274155220864 -0.994162572191
4.183054340627 14.394410302406 -0.913501330998
4.203384009647 14.425839081980 -0.850424698137
4.136343827738 14.363215185446 -0.731414798202
4.043061462232 14.402908608220 -0.687549044747
4.164926208370 14.394388178154 -1.017660025325
4.159283399588 14.307379700599 -0.936628401704
4.024084627980 14.424571812211 -0.806145917505
3.960824281006 14.400183749311 -0.768673911909
3.969289642963 14.491243698251 -0.637322226575
4.043341630924 14.339143900208 -0.991954742825
4.076578835946 14.367262620740 -0.943554413063
4.068793478955 14.431964043976 -0.838663710389
3.922707801670 14.423505777702 -0.804896958453
3.959149755102 14.371982463981 -0.620860249798
4.095731626435 14.357281652969 -1.034083807034
3.990698359468 14.404884331453 -0.893693848475
3.869645644419 14.348666808154 -0.856277043147
3.949191116746 14.435698000682 -0.892870187096
3.828042040657 14.335079378730 -0.740766460466
4.018745835717 14.408782210390 -1.059304525214
3.962205096137 14.333289426347 -0.987899729756
3.903754699623 14.361967587720 -0.985031543102
3.857560744170 14.368968624917 -0.915167361652
3.725281148611 14.380852745604 -0.774544428706
3.936802146412 14.308551219895 -1.053964719152
3.714227247322 14.301669265775 -1.040983472781
3.777768935503 14.345950021183 -0.971304484310
3.738137371827 14.380887388303 -0.954275109690
3.687637179545 14.371917375254 -0.848682280558
3.851535981401 14.372684134810 -1.106370307499
3.844676425539 14.343866979196 -1.171503469963
3.707512867751 14.411791122443 -1.069900859494
3.590455139252 14.403254194341 -1.012334077931
3.599854704101 14.325301104680 -0.867359981746
3.757107325858 14.309290849478 -1.202872331877
3.761259713791 14.360888045114 -1.183629679219
3.734806954341 14.381351307186 -1.078984224383
3.546378125271 14.427801047478 -1.089687313701
3.518876442380 14.475075277480 -0.993562119143
3.750451187480 14.383319299670 -1.300738741673
3.635134803863 14.321319306315 -1.238267314040
3.516122690274 14.359419454916 -1.202947781018
3.427358590935 14.353293216990 -0.991977628716
3.353547604805 14.330562690819 -0.952020867678
3.678747336224 14.337944818831 -1.290075528420
3.541261801982 14.273962898734 -1.327539131225
3.494084147684 14.384411609683 -1.225495469070
3.501705127512 14.310014499542 -1.169576662280
3.418979521580 14.268145504949 -1.129407262153
3.609570370821 14.129420007520 -1.339202415489
3.527730681245 14.195289067131 -1.252320714290
3.554304192575 14.343195110751 -1.268658401523
3.321410792365 14.283691465855 -1.237234455380
3.347263375704 14.330760206304 -1.124012879697
3.572970466644 14.216139659242 -1.549270438728
3.521387543992 14.345160924127 -1.398918525863
3.389030797330 14.253972823269 -1.291718525292
3.383455456648 14.306060818092 -1.234716537131
3.291455117464 14.256876217350 -1.164481454873
3.563976481269 14.320743964618 -1.473355451348
3.465708781951 14.259518763638 -1.407132420033
3.378554848158 14.253840562730 -1.500944275750
3.283743443788 14.246862280378 -1.455523301684
3.221793958124 14.252534213306 -1.276604886539
3.477382953276 14.271334551213 -1.527192236846
3.455651983959 14.169411953900 -1.561003833967
3.295658032002 14.243301842506 -1.492647539667
3.225419340000 14.252812001932 -1.421276157419
3.096691822588 14.264651118668 -1.308872127992
3.414773064557 14.194375194718 -1.668601448469
3.347665792263 14.253513343334 -1.624783820891
3.283032231174 14.316893859773 -1.421943971553
3.197339813363 14.201330331250 -1.442849561010
3.126809187147 14.260818591983 -1.461120293675
3.283525936456 14.200784665586 -1.736702775384
3.359428959319 14.267854164929 -1.642271342268
3.202025193519 14.268426607746 -1.585058537666
3.149921995809 14.256518720692 -1.510764546943
3.044812795964 14.176969304546 -1.524890222836
3.375187417791 14.242020016609 -1.741339120166
3.263256293407 14.294775241746 -1.670988364070
3.162027153127 14.129654230157 -1.663218144934
3.066214239874 14.254897717049 -1.735350459299
2.955351151366 14.216294029080 -1.627082836852
3.334829714216 14.240140819763 -1.886864713304
3.265963405135 14.192947253070 -1.789972709053
3.169914150877 14.206668510408 -1.827296515212
3.046180999403 14.236662897570 -1.718847884558
3.013960023616 14.245254310807 -1.655253002498
3.294636942052 14.176825368574 -1.799410346635
3.248425145369 14.150233356124 -1.856172609304
3.012593832957 14.170529257334 -1.833789175016
3.101401626795 14.211375605103 -1.795230385586
2.936755299986 14.199915405223 -1.729801402033
3.242804895655 14.133402203738 -1.968246219884
3.138163255756 14.246116294431 -1.994528203936
3.101986031558 14.134429731816 -2.023478424461
3.012588731447 14.263940335757 -1.808552713576
2.943793136773 14.217798186291 -1.781804700322
3.211395179358 14.087615316572 -2.045622293134
3.175971077126 14.189433010897 -2.051976928780
3.144800085431 14.160447687804 -2.007865114657
2.913336841743 14.148300301981 -1.963438176201
2.911467580064 14.104194654181 -1.916869374848
3.199236132968 14.169036104741 -2.109393880420
3.116427326693 14.062160399124 -2.089769121608
3.006494599572 14.096998404830 -2.044160281721
2.978099258056 14.168156297939 -1.981137565904
2.809966578182 14.093976764816 -2.077267314125
3.147566727008 14.110841293506 -2.183152552788
3.092071521500 14.130925774257 -2.121014481893
2.958654839341 14.123383902534 -2.210613308690
2.880139974546 14.033444227918 -2.105914954433
2.827959667813 14.142638589497 -2.161340607134
3.132927826202 14.011809373235 -2.267122974612
3.147078519412 14.119109043864 -2.229496698584
2.964007158959 14.059457815124 -2.258511143609
2.910096823326 14.186437563724 -2.260288044094
2.786625447952 14.160172449904 -2.078779343623
3.262898927592 14.117735560298 -2.228882010644
3.103809459984 14.032720409485 -2.340433286682
2.949687389572 14.098990343198 -2.292920887180
2.867196268853 14.085684221520 -2.406845187735
2.801323409228 14.051040353292 -2.365759462588
3.129621415503 14.128194476920 -2.409560794178
3.083370860117 14.170556931044 -2.365857523856
2.991158729474 13.997248986029 -2.342281803527
2.955809194817 14.015996132740 -2.313625065904
2.890059941441 14.109120201027 -2.427380308907
4.767685949561 15.190419526471 -0.670362153095
4.674946044324 15.238130061615 -0.717384960984
4.753229234704 15.179965899111 -0.839937785629
4.788366530668 15.241759155943 -0.907828637537
4.794367908102 15.150476625586 -1.063907862384
4.647332480869 15.240547101744 -0.659890159420
4.619251557279 15.182134773220 -0.728069485497
4.701434909720 15.138116227329 -0.881487529487
4.701772379049 15.099148175979 -0.953677326913
4.583440117837 15.109312149224 -0.954296677998
4.495531067583 15.280470923535 -0.549813051461
4.482854703701 15.255078502744 -0.765402584027
4.531771379191 15.222815577074 -0.937516986263
4.620185960330 15.219892067189 -0.845710658650
4.630846751767 15.145786166126 -1.028753567965
4.456788330484 15.216341184479 -0.603402663462
4.393617039524 15.199517283424 -0.723338061096
4.412143584645 15.261586316017 -0.858814744631
4.602902492413 15.212687285925 -0.989154364261
4.480641139273 15.112549830209 -1.038383669809
4.469562238328 15.117054872416 -0.728265386453
4.384774193633 15.217260824786 -0.775513397615
4.428558606079 15.181148918332 -0.878445416522
4.345265846704 15.135370518127 -0.966629755738
4.454044435618 15.269033860722 -1.051373891980
4.387840716145 15.213378369566 -0.708597222088
4.227257679119 15.317653292629 -0.814763183348
4.260856197170 15.177563982354 -0.800892221745
4.233259175920 15.163462484646 -0.920857990663
4.342105581516 15.043400319973 -1.079467079063
4.198983474583 15.116971600444 -0.798924523063
4.143753062482 15.225897833182 -0.784560534350
4.217417755272 15.200158249618 -0.908061673320
4.231701127138 15.121534063241 -0.999874283047
4.235697422002 15.137888246129 -1.106559526919
4.085244877013 15.310848108018 -0.724860667518
4.039679264638 15.197539065957 -0.884589839200
4.196638680067 15.205816370253 -0.889275227383
4.233116456841 15.141508928026 -1.080810501403
4.245059016304 15.150103996784 -1.089737456165
3.981859859114 15.256608050634 -0.853191619537
4.028337165959 15.213600669412 -0.937142376701
4.072969990489 15.172240244806 -1.046200701482
4.240922167160 15.149075248840 -1.045812824615
4.144815318959 15.169375680065 -1.092880757956
3.881555408803 15.180744284456 -0.819230818389
3.874608949029 15.239181981312 -0.910005066987
3.973905578437 15.228173472429 -0.955715188936
4.060265098041 15.162714871216 -1.105905203302
4.020299992406 15.158347140531 -1.152914080168
3.767762658667 15.288245244720 -0.805344785853
3.767741445872 15.199978838322 -0.965905311592
3.922947379647 15.171576677534 -0.981292260024
3.881710146754 15.070235257768 -1.121470925391
3.909341468889 15.082703497560 -1.266055983302
3.702410560890 15.134328726600 -0.903890827719
3.784976557284 15.235811242580 -0.953334431147
3.780541802848 15.162306358636 -1.150973887988
3.876307809945 15.146759571971 -1.136328674375
3.905632490110 14.981718025397 -1.216972546440
3.586311816078 15.163519410767 -1.089234579153
3.716932727611 15.176802850945 -1.048419427428
3.739791559666 15.119080155584 -1.070400663457
3.864577649801 15.156963076827 -1.212867860723
3.871418732440 15.127337885915 -1.222400773002
3.525801607434 15.278544783246 -1.011788238020
3.546725447668 15.146457717927 -1.083284613097
3.667367612764 15.185376975152 -1.140214389231
3.771240961913 15.196368797455 -1.311005420709
3.737922901816 15.113693939992 -1.310869179059
3.473118959018 15.133453653291 -1.043426322782
3.526958561369 15.038507195707 -1.171837340132
3.568616144738 15.142565079788 -1.245338855946
3.761388418987 15.113433776421 -1.315639661180
3.750645434799 15.167746078544 -1.379789616524
3.408078836707 15.152429082815 -1.151330288002
3.512636556118 15.180155431651 -1.331333581653
3.667254702275 15.156591256718 -1.256556143776
3.598307421741 15.159395545146 -1.417464690605
3.298571767142 15.079613977374 -1.256795565353
3.439442726393 15.046296831977 -1.303406944678
3.545391478431 15.074079795147 -1.394183559540
3.617286599243 15.131346042613 -1.517716679684
3.585813623234 15.054845211744 -1.465385848477
3.314597716911 15.120375026833 -1.293365561781
3.389618048671 15.088161155203 -1.462726381268
3.457807522234 15.010407594925 -1.414948623154
3.440472145873 15.173972108858 -1.491906103466
3.640474037567 15.110682729275 -1.527481276790
3.286986158608 15.135221499323 -1.379558561487
3.332347901331 15.168608296720 -1.504418649628
3.431142875484 15.141646224287 -1.568455859881
3.394990007463 15.063357591330 -1.591399378739
3.585550228446 15.167235148018 -1.607393404547
3.157775352044 15.177204753979 -1.467602593265
3.284912014436 15.126785257615 -1.542731426516
3.338312251525 15.081514614749 -1.521134413169
3.573710164168 15.073716366404 -1.590038694618
3.529369722876 15.096236527705 -1.661267120998
3.115903269910 15.064148832424 -1.527220849563
3.289509735953 15.108258501408 -1.581813825138
3.257054891556 15.060010050751 -1.609605698222
3.303130764692 15.011361904455 -1.688983955984
3.459270399032 14.990953190303 -1.746290055451
3.026962471147 15.138547801631 -1.647255075564
3.084953670818 15.031148827452 -1.700053159140
3.248167079260 15.032729242431 -1.720141429676
3.343111651715 14.953738154122 -1.713551533482
3.450787205262 14.936875081124 -1.785448373414
3.053010740289 15.081245075598 -1.625292298706
3.110189963467 15.145160541660 -1.780222136647
3.186705326933 15.057807433976 -1.809172512042
3.299993217717 14.999057450224 -1.885319470067
3.405813029707 15.012794656871 -1.887241244885
2.940947915748 15.095284197051 -1.628688786004
3.058997489831 15.089904069753 -1.810737128064
3.140449368275 15.070886844047 -1.841148587717
3.208690631449 15.027592307878 -1.923683022645
3.395469280917 15.096971165017 -1.876674746979
2.985041108747 14.969155171127 -1.817862994822
2.863138720196 15.058624280442 -1.974347809615
3.161255089052 15.018852541398 -1.953467194965
3.131858336726 14.942590184068 -2.037664129915
3.306984627624 14.983034994023 -1.984983582545
2.982332405300 15.025948589812 -2.033463288518
2.974565575119 15.089781266287 -2.038425537667
3.184171869411 15.053605400133 -1.993314289320
3.261313150095 15.002985886637 -2.062445026696
3.305662687711 15.016545802248 -2.173967183921
2.887453412106 14.989121111059 -2.198153456175
3.046459193473 14.975333824211 -2.089523448570
3.015169564790 14.991652929885 -2.039882626295
3.158362496273 14.991379077320 -2.049186029236
3.262748366245 14.966511438621 -2.234909293074
2.830676135246 15.000973885020 -2.222338312733
2.968203764081 15.004402850929 -2.243575586986
3.000924829403 14.966585248413 -2.165141199675
3.090985790664 14.929859407190 -2.199375974399
3.317225813395 14.891558394730 -2.242353780298
2.857922552210 15.013039210989 -2.215239466442
2.992487342830 15.024700121571 -2.196321034413
2.988438775417 14.970030855313 -2.306732942936
3.199638516013 14.880620982490 -2.349843058019
3.193203293787 14.924935771556 -2.445101884057
2.720694253973 14.874159664430 -2.382144802206
2.967968430174 14.984640640292 -2.284054394689
2.981468150822 14.994624562484 -2.401585716566
3.184662301321 14.937941557415 -2.349850190332
3.139980439109 14.940525202363 -2.407770143485
2.867858291853 14.947649581176 -2.435513078374
2.934157975568 14.976321492253 -2.469278437441
3.025572251605 14.885882839310 -2.545394693013
3.119549610881 14.872448275103 -2.507971207252
3.203711737367 14.952822765836 -2.374932937926
2.885164491798 14.955516299129 -2.515754455372
2.947596297575 15.026743007107 -2.504725500798
2.858241361093 14.861236415994 -2.490912002952
3.052699235214 14.957687099574 -2.469921718306
3.241744539444 14.998022949778 -2.614449731629
4.703770891588 15.110713535024 -0.902938791236
4.706995163190 14.978498021748 -0.913725575897
4.735612088733 14.934677118432 -1.019028317794
4.794600598646 14.840296783684 -0.913030548743
4.824853245040 14.736507592473 -0.932501604611
4.745810614823 14.620212436349 -0.858177158500
4.824352291135 14.505907732453 -0.876346639120
4.794408546888 15.057563828095 -1.050959506541
4.704421171899 14.960292158762 -1.080889882072
4.663828960515 14.821496626627 -0.907076083078
4.633846602338 14.799619626944 -0.853530888844
4.753336260732 14.727858269469 -0.941184862625
4.742325474825 14.692275797482 -0.933651461427
4.681820285473 14.452598182194 -0.862747085991
4.562146953581 15.073728848795 -0.984931180650
4.547773730293 14.933213524138 -0.983935995060
4.670376691398 14.885730404340 -0.920490430613
4.558569632280 14.777823129543 -0.974685692613
4.584102742992 14.652317505571 -0.961192422335
4.562234249740 14.524045050898 -0.933814577349
4.593107818074 14.516943141872 -0.925459327799
4.484808677883 15.057549818537 -1.009710619019
4.549551144822 14.989519017203 -1.011363549711
4.478420320415 14.840422568542 -1.024883177547
4.558895021595 14.717311196679 -0.930911030572
4.525429992659 14.670081025962 -0.941603367704
4.510611651824 14.462657519447 -0.916596102442
4.596124736846 14.415938085307 -0.894471903989
4.377447817164 15.088753286010 -1.079734060313
4.409598712873 15.015668204676 -0.941985656868
4.406866945912 14.878878348762 -1.009983836254
4.526107826829 14.623770143151 -1.017902387571
4.328790501667 14.614816289888 -1.004374310463
4.473584549747 14.660274062977 -0.888312390868
4.519074904138 14.452981171830 -0.900533135983
4.479169895642 15.035161218200 -1.118437240927
4.369431224995 14.979833560617 -1.058784055590
4.337930690456 14.899455829976 -1.046493478279
4.361269866160 14.819028819060 -1.052916198055
4.425478924858 14.662900337615 -0.991428302174
4.371902924745 14.506257321787 -0.955643398197
4.374544092669 14.473073322366 -0.953703620001
4.294565909189 14.973526289971 -1.170819618363
4.305491388703 14.946340343776 -1.016926770929
4.243183264367 14.850911266596 -1.050230391407
4.280073517338 14.734758306346 -1.001096093046
4.178653570832 14.654045750933 -1.016034112632
4.313202778069 14.535646342042 -0.943212685447
4.334351620986 14.379012465513 -0.979196174930
4.245677572895 15.025310684040 -1.125525867735
4.293307260169 14.909494557465 -1.075819984134
4.288689747682 14.919096343287 -1.042572558334
4.237941043211 14.725594998282 -1.032155059925
4.273921286538 14.684874334396 -1.052675721630
4.234775225582 14.482172637675 -0.976665133257
4.246646976222 14.461494468849 -0.955002604344
4.130520830217 15.064887605652 -1.167534355314
4.201576461071 14.914930223466 -1.135813441883
4.278733180725 14.865030214140 -1.144004169986
4.164840283060 14.663375751673 -0.961822936435
4.155521389017 14.713764366184 -1.070858177958
4.100270629928 14.540300302998 -1.018800208499
4.117350359325 14.455557801934 -1.019796111937
4.123726559077 15.005682014630 -1.170436961801
4.062945101066 14.872419007433 -1.167235241717
4.141328128736 14.852659095037 -1.082280246360
4.062194756726 14.773075439134 -1.108446588131
4.114077404863 14.653082389667 -1.088783835179
4.039406372000 14.523195957677 -1.115844042327
4.129670933369 14.469264851524 -1.056480047269
4.003135874683 15.038878180514 -1.221321779679
3.980870528460 14.968287644723 -1.177148062739
4.075615508382 14.756486173839 -1.163794199431
3.985097918639 14.794631429322 -1.158348267802
3.932259669009 14.613335343535 -1.131654060186
3.983085553406 14.542515705615 -1.031506960301
3.966758508528 14.343574494798 -0.975352104564
3.999713470632 14.964337467032 -1.185093063701
3.967836340374 14.916159828573 -1.198235822943
3.987045292314 14.769939541837 -1.237791931349
3.812769686359 14.654418875647 -1.183265673755
3.924928515364 14.697035729625 -1.148170028206
4.029773762093 14.517125689509 -1.157921395075
3.992143355991 14.374173091067 -1.055065165592
3.892011752653 15.048899382876 -1.342721920800
3.818065255848 14.982580703382 -1.258763711598
3.798090343154 14.753490698976 -1.251277314503
3.917561667595 14.705216856163 -1.175064035486
3.894217540426 14.677773079337 -1.233951239540
3.902165157238 14.473432083701 -1.167028983290
3.910014127685 14.360568165276 -1.175384035804
3.836791647907 15.089288859654 -1.354013961139
3.798057350259 14.942967179426 -1.388021229755
3.795635871892 14.838506181490 -1.358573403335
3.885303216014 14.781006636621 -1.337400674230
3.918126333507 14.586490044845 -1.237574221856
3.913191626876 14.526357022171 -1.255394044723
3.923557448012 14.385194319841 -1.220407008368
3.701691521929 15.096829914655 -1.394561675085
3.829981033495 14.855227040125 -1.361360031877
3.781262822161 14.870397341207 -1.311761787000
3.776292290796 14.711447750309 -1.282079947148
3.857241926015 14.563513684005 -1.285408493812
3.734495459296 14.488271991430 -1.312674748293
3.762205053054 14.396342573725 -1.355755786342
3.832523831117 14.919367099312 -1.410479350306
3.733860300575 14.795230140632 -1.434801312651
3.707269878733 14.768541187722 -1.385824126323
3.682087334199 14.532801991322 -1.364972474115
3.783513139753 14.467812033154 -1.323961861701
3.754499429895 14.488908122273 -1.262346707966
3.660665237281 14.851388641593 -1.470200968171
3.670736365836 14.882599545328 -1.416226605878
3.657122809110 14.669151192433 -1.381160057269
3.720482076475 14.612076949354 -1.432108539819
3.645716989235 14.488898054480 -1.404626724224
3.689689902475 14.330418660849 -1.475315713853
3.657497310100 14.968094771473 -1.504785673869
3.560536655738 14.820769521243 -1.464050225578
3.653798685169 14.901690841906 -1.478388297436
3.525898436663 14.715851998120 -1.553992220106
3.552022528774 14.569460673972 -1.415182111556
3.580235142713 14.566484623460 -1.466402270683
3.556181442156 14.407121427584 -1.386203363474
3.707084077504 15.069960191740 -1.570362725190
3.631133844829 14.753437039330 -1.585207658971
3.510289432906 14.716821290329 -1.610300588236
3.617754010117 14.672272809343 -1.439921451485
3.456800087941 14.562909451585 -1.401672062111
3.562095407756 14.531454581022 -1.489616981509
3.552737943555 14.381862242857 -1.447099266735
3.546385708478 14.901452792569 -1.664547525715
3.585283328429 14.833576036986 -1.565641639857
3.438378178555 14.759115906622 -1.621535802928
3.474511253520 14.624904081142 -1.526868864020
3.507721905274 14.534921156497 -1.575847371493
3.518800805007 14.462295369528 -1.474294472706
3.547089405503 14.301500991369 -1.467819470404
3.501602161418 14.909956504872 -1.746731798780
3.412738766722 14.850790474700 -1.741633253291
3.531877226332 14.787354945472 -1.693691163998
3.509825681709 14.664653872727 -1.559319239080
3.442248725856 14.511413757926 -1.641105716901
3.456842761294 14.456033549676 -1.621393108878
3.538696832508 14.330062372431 -1.656613801119
3.356543093417 14.889577129011 -1.820320566796
3.406175245079 14.834473414068 -1.734377479490
3.432534943839 14.700121226183 -1.613840437391
3.472731452873 14.596550406358 -1.687572392500
3.535312186119 14.477759224747 -1.610738272346
3.405399752753 14.359316440588 -1.675386528660
3.426265732006 14.425983957789 -1.703712853030
3.465053236036 14.790363936664 -1.848410965296
3.414445829902 14.770780234394 -1.757367844141
3.299930943085 14.782084146580 -1.814145816046
3.305154438785 14.560166195934 -1.797874758146
3.384742052119 14.484059774869 -1.754047720753
3.320676237512 14.455638626692 -1.769618598926
3.304945522401 14.345435384932 -1.673888652991
3.376285960633 14.950510165175 -1.858471779794
3.335985960904 14.865949331379 -1.822017294462
3.401091037074 14.707835070727 -1.874635922064
3.321811610666 14.640225030818 -1.734607157367
3.364523794442 14.464194420841 -1.857314250940
3.353975109535 14.432609696310 -1.705501445098
3.290709516457 14.365916318346 -1.779853669288
3.328114471585 14.919597246501 -1.907823112687
3.359663243080 14.794855187607 -1.894033313276
3.356202049450 14.679103175176 -1.854102458573
3.256816605486 14.562070944755 -1.878544580871
3.308650949349 14.495258702835 -1.852928120296
3.364252889862 14.371464580689 -1.881877775510
3.310619723336 14.242918311877 -1.825552727150
3.311857139635 14.863298266440 -2.020991499474
3.352553467391 14.814562529756 -1.983998317127
3.206417585464 14.663764072243 -2.047839406458
3.328661668128 14.666880706464 -1.977069311351
3.306920251813 14.415936907527 -1.953112399863
3.387748820038 14.418291869817 -1.860257161977
3.250074483743 14.315125839946 -1.912145242492
3.249933794827 14.938475204050 -2.025779626935
3.346902353596 14.760515042109 -2.043251576067
3.275399704217 14.680962648464 -2.089305774783
3.271916934912 14.642260690776 -2.065423462734
3.218413066833 14.455688612647 -1.973969221455
3.250594664335 14.289703012803 -1.957636570634
3.350428460320 14.373136752948 -1.897441315301
3.289255066434 14.783288564721 -2.259326110322
3.201736510450 14.826992171824 -2.128232390275
3.257928424453 14.564680528274 -2.132583913074
3.189147073435 14.620069173009 -2.070766064227
3.363255437996 14.374526170094 -2.108375093044
3.347792125113 14.305479558025 -2.137358593162
3.287932754906 14.273857601302 -2.043013737510
3.334174939571 14.825421329185 -2.216428874826
3.285433584229 14.787648246622 -2.179271173168
3.269739608477 14.725930590888 -2.272089069503
3.251749782207 14.552085373480 -2.206440262011
