1.880387416936 14.435091992715 -2.533252676756
3.581907391951 16.402206857999 -0.006673377673
1.060855336891 15.267924468223 -2.354280617585
1.020966903369 15.256565041926 -2.397048058446
0.033154393911 14.578265484580 -2.126660015863
-0.004177412328 14.576313928408 -2.025594028241
-0.002880990144 14.593354662861 -2.011874947136
0.989480837885 15.294596802635 -2.085864170517
2.919937852604 14.279357507711 -0.006392453036
0.873960441300 15.359175582250 -1.959763990830
0.886383343547 15.266050358988 -2.039531239650
3.629418239417 14.356148644551 -0.019626194289
0.014027151571 14.765492804644 -0.553293384079
0.012448931095 14.660758101348 -0.551608012893
2.848150494159 14.379270087114 0.011337683277
0.019181944668 15.389941170435 -0.306735691592
0.023502435598 15.380276529257 -0.337835554631
1.035952408268 15.404737200842 -0.016301716533
3.952306562674 15.749420373851 -0.017916491092
0.410225805735 15.195057063016 -2.596700608626
0.597107187209 15.335230515576 -1.616961745475
0.648187961546 15.306416775368 -1.647432680344
3.135816448744 17.433425928475 -0.345144382887
-0.015298785865 15.289949470964 -1.662977230885
-0.056753680125 15.312310073897 -1.760562038878
0.361296050636 15.186382644717 -2.591494384035
3.590892063112 14.276057803467 -1.345805989169
0.301865133675 15.230329307829 -2.407285356931
3.587725139807 16.461814167177 -0.031097189900
3.856870698697 16.189607849357 0.003895919657
0.346585171363 15.242032043170 -2.323280881263
0.286703237221 15.218189267417 -2.439206695392
3.572509789203 16.418753422134 -0.005710118678
-0.007273138712 14.663910486521 -2.277121026349
0.182257105768 15.269354841625 -2.142617277253
3.966740929210 13.820206171359 -0.011861495257
0.037526807731 15.252540356527 -2.476118512094
3.901838679701 15.370706448774 -0.014570015195
3.928658572480 15.625110791855 0.001739189763
3.914106551054 15.690135676883 -0.000772230865
3.860093508324 16.188492174410 0.006614746921
0.011704513472 15.214975261427 -1.012585173023
2.696625666325 13.978305539680 -2.436348732565
3.584456496705 13.973028374426 -0.704071314869
-0.029829495575 14.795415015565 -2.374841580172
-0.012378259362 14.792499607450 -2.363229324205
2.930962561290 15.335407231139 -0.025543611456
2.698844694287 13.923531344084 -2.391158214563
-0.032298653825 14.940018992858 -0.922551796269
3.812496720926 15.276811985298 -0.002297229744
1.416957302444 15.328723960297 -1.961118734599
4.170707785742 14.964573513646 -0.034214563645
-0.055366275842 15.143960892454 -0.955429000600
0.028879853566 15.149251588064 -0.970681754609
0.026573101396 15.028551434238 -1.003805622172
3.363890047704 16.026252714853 -0.023503552140
4.800295217490 13.778707018558 -0.227002440132
4.837116230444 13.648030499401 -0.207690147230
4.860700968947 13.649733249595 -0.296363058643
4.859268773032 13.767230702092 -0.315234740731
4.878494854168 13.792052803872 -0.190047221491
2.800603291007 14.123261667167 -1.732587007928
2.813749126214 14.073030071874 -1.662087491714
3.141246973110 14.129100634072 -1.140425898377
4.053306196523 14.753749126278 -1.113240337999
3.402309309563 15.651339697331 0.016059266669
3.873961862060 14.286642372264 -0.553787319210
3.918231292900 14.266305332089 -0.584307458651
3.310137413762 15.948382405737 0.047412334163
3.312626878474 15.960438893666 0.018211843492
3.342496313783 15.992347705525 0.015037126102
4.840899126262 15.104881501616 -0.864090497330
4.861565493015 15.215819242766 -0.953970665478
4.870988300689 15.217955823776 -0.861056208228
4.831060531588 15.147620916228 -0.804288779124
2.806736648943 15.419569243765 -0.022805544058
3.495779944578 15.617011733934 0.005706481679
3.434482535734 15.637400742457 0.021733027252
0.665671362197 15.481991171062 -0.772809210076
3.135127080723 14.086182439166 -1.170610187952
3.202897058399 14.122560291382 -1.143086432280
3.872597465370 16.200803248534 -0.443442278953
3.325189969607 15.501181936193 -0.029896511450
3.399761261101 15.461183525964 0.006431851273
3.313613696949 15.486549549295 -0.028118705525
3.326924591023 15.486110163557 0.017205202619
4.884575563436 17.266782489621 0.015947310955
4.815079716201 17.222064023720 -0.018780256088
2.863435365342 15.445536288238 -0.002240296901
2.905832188805 15.423302036513 -0.028104475626
3.085073440214 13.967431981691 -1.258631778686
3.117522225425 13.974564202728 -1.193600970291
2.008474319360 16.321826180710 -0.699882777316
1.964526940367 16.386403968203 -0.701299797624
4.828935420861 15.650255607097 -0.047067801125
4.825490525603 15.547955271490 -0.024928383009
2.974704699846 13.892909968277 -1.313880396850
3.044547421933 13.837706328779 -1.299412144894
3.147598525913 17.330506205149 -0.579684101242
3.140727363215 17.365878444581 -0.563570432299
3.167398713698 17.431921073716 -0.536434692499
4.806967262957 14.096479289742 -0.088800494294
4.829557157496 14.021639963089 -0.004547677384
4.830759793813 14.018851529688 -0.024550515114
2.961687003998 13.803985812797 -1.412650409346
3.036851925118 13.724628756232 -1.363597036159
4.562654063095 17.763765224868 -0.513484279682
4.632790976414 17.829563379184 -0.479414826917
4.624277373964 17.780170568360 -0.497914268305
4.744219875539 17.718834020655 -0.545286273271
4.841153423411 15.241467950569 -0.171235090690
2.914619205330 13.680575740212 -1.383235284041
2.938448220206 13.660444114946 -1.431262205892
3.562291418492 16.788551039305 -0.643548780555
3.614825355716 16.718943301103 -0.660607376963
3.579208985254 16.696312053562 -0.706050091102
4.809898830881 15.065596653199 -0.627374206855
4.834175563386 15.234944497503 -0.262926915885
4.808358635767 15.195362605741 -0.220371504281
4.866891904937 15.309817288009 -0.255980056304
2.804721758621 13.422285382480 -1.680575811190
2.810256983084 13.398765239235 -1.665766523154
4.815875638419 15.024991123449 -0.661284068293
4.821628799056 15.014714743257 -0.618716385577
2.171620244739 16.380993687309 -0.784076878773
3.768006349790 13.622675183034 -0.542553589070
3.807899055932 13.593112461006 -0.522808295277
4.794745091944 16.534297006048 -0.279430598100
4.776939691757 16.493859554249 -0.207889658160
4.624058776807 14.403816195939 -0.740764931210
4.615131944227 14.380657625877 -0.808636689646
4.617539386254 14.421435847542 -0.820645913978
3.653869297407 17.184269160752 -0.611643593290
0.753307758123 14.540551609323 -0.288101155683
2.994931635563 14.131233643529 -0.001137953975
2.190810281529 15.759846022921 -0.879875865434
2.216341174689 15.735890000466 -0.944257606876
0.769813135962 14.529049616238 -0.221750056846
2.984418111455 15.462995803357 -1.235374252286
0.993378241272 15.010279583033 0.040488244310
1.009383126510 14.969330179933 -0.019932840340
1.808638307082 15.693881620383 -0.899860874299
1.781321378093 15.744138146697 -0.935719741634
0.854994951195 14.529097649324 -1.391844704948
0.949659716350 15.354324940290 -1.217568196765
0.033606114304 14.658360727777 -0.955458420112
1.841816469567 13.197854173459 -0.017188360660
1.907918071993 13.199654843538 -0.009503238898
1.331646342227 12.985463005702 -1.677974112543
1.870671609697 15.670130758911 -0.927375183203
0.853624508832 14.512245767656 -1.328286477343
0.811020677334 14.455855533173 -1.348021274211
3.563529689797 13.963546429981 0.037027111487
3.931898332159 13.934673342676 0.035555616236
4.008402780272 13.941644094007 -0.016825231542
1.107688220146 15.176209351696 -2.661906890789
1.155987425056 15.215831918542 -2.682637714832
0.915023484242 14.272272806425 -2.388967087774
1.047912151507 14.380067714095 -0.072295090779
1.036756617552 14.350443010485 -1.130821936331
2.692222409227 16.564188938961 0.003289191371
2.593134511345 16.520840327573 -0.056983315875
2.557082822731 16.372830716858 0.027760908762
1.019641675735 14.191929327146 -2.337064066334
1.067489782956 14.350904706198 -0.069681063056
2.736235592881 15.113442455609 -2.691356830640
1.092998117965 14.347341774515 -1.075964288329
1.041554064928 14.291534370547 -1.135240629231
1.123815127612 14.123629041527 -2.156671612963
1.074221316795 14.130041988557 -2.465992325412
4.294804693572 15.528052675316 -0.012168406220
0.793638031929 15.240431585015 -2.646591864153
2.679584887368 13.205286449258 -2.363565958163
4.386693413506 16.604872075985 -0.002004461207
4.385625089203 16.731614778757 0.027374601486
1.142790781595 14.077296736988 -2.180319194971
1.153340365951 14.105058946749 -2.179390869883
2.549929377404 13.245358076835 -2.372930110604
2.530332507889 13.274982668565 -2.279575957669
1.183665855226 14.135508420811 -0.919914692078
4.207787641169 17.267647919677 0.021214388089
2.192347131182 12.643736020871 -2.258146049020
2.145507950810 12.628818445560 -2.208859341306
1.239546679477 14.034497615598 -0.839859968293
1.249150995385 14.114839508884 -0.925121712510
2.642765269363 16.402762954010 0.002293826682
2.655468614021 16.352372294268 0.060596015399
1.198988576891 13.939164130676 -1.987164422777
2.104959157120 15.613255029216 -0.012556671332
3.254112809028 14.248779419120 -1.036768661426
1.363405547150 13.480272684349 -2.350427727127
1.348188416446 13.527305862748 -2.356741881731
1.263694973526 13.863695245010 -1.906466877429
1.261073679091 13.890183941293 -1.998842219679
3.544951276845 13.982324319782 0.005396142415
3.573170733182 14.051157396416 -0.004232880402
1.303564166704 13.840921313759 -0.637539590007
2.820092790203 14.880803816483 -2.629016257821
0.346389562711 14.553819860883 -2.536183689452
0.249064108656 14.394247277914 -2.506174040713
1.320254451564 13.834335351636 -0.673786667563
1.336829029740 13.821260865460 -0.667775237185
4.268917068708 15.432295539762 -0.019017792274
4.294755255359 15.475909864422 -0.052421765768
1.360837425496 13.686823451544 -1.727200044402
2.691668311841 15.072857077632 -2.682085242786
2.632558380066 15.046834087399 -2.655807449745
4.242485586325 16.630648624810 -0.000463196745
4.250438918013 17.198433685012 0.002495994322
0.390190098508 15.007656333471 -2.668685295765
0.256297671577 14.573150465761 -1.923209553946
2.503054822563 16.074828639279 0.032345020977
2.233302057578 15.709362551167 -0.041224759049
2.157253731051 15.649863987646 0.002067435095
2.513018480509 13.824494572502 -2.478508806646
0.044091689485 14.628871533183 -1.360187895844
1.938079031001 14.979130986251 0.008361675618
1.965279199618 14.949138859963 -0.023880081580
2.026136691394 14.919176417770 -0.028863422869
0.026580314575 14.684044511275 -1.299524926461
0.268340120998 14.621043069287 -1.067680229207
0.267537922263 14.619064525620 -1.114529616617
2.055672375395 14.976688844466 -0.004867880428
2.056089131714 15.011142971987 0.024131587855
1.536186212936 13.545832076378 -2.422593744032
0.229945186712 14.721023469999 -0.244144284657
0.274933818929 14.670713231921 -0.205839333680
0.390574134595 14.965406490410 -2.666763249736
0.343422559504 14.990824051464 -2.646592947850
2.755149319866 16.249507623130 -0.025639520604
2.597115001584 16.073009845672 -0.033174517066
2.617585632163 16.064799779774 -0.028065044053
1.414009353406 14.965934715111 -2.613187971289
2.542733594928 15.252978425483 -2.419900289896
3.227251990653 17.500922016946 -0.391899819720
3.954386754284 14.182623575785 0.014982861480
2.504390407830 15.291595903094 -2.355259600756
2.528330139205 15.253656459544 -2.401764723415
2.457163688419 13.873011736467 -2.494276810271
2.507057136613 13.855305701087 -2.439975105989
2.441122063603 13.621012674139 -2.406426618191
1.297116004175 14.907944188624 -2.651065088443
1.327514744896 14.863022489983 -2.632635976625
1.394585815205 14.886138040692 -2.623529653795
4.225638582626 13.998543516361 -0.388412002067
4.173710523017 16.550219074031 -0.038575406689
4.184365115518 16.566572412032 -0.001742753994
3.987335044155 16.939345910577 -0.053010447415
2.335439300900 15.273619314582 -1.962795985009
2.322203483064 15.304061455724 -2.036233833545
1.564871365440 13.458189177781 -2.350146242519
1.612556843400 13.565592866754 -2.405644262638
1.571713816405 13.771021399185 -2.436534655696
3.561345082949 14.354545128930 -1.491513521053
2.804156444459 16.205924576241 -0.012771636733
2.847154071810 16.221150753684 0.000578047381
3.272633910314 14.194634430722 -1.052365150103
2.184591443324 15.342958743952 -1.713321704359
1.729394509932 13.739947394661 -2.447320156980
1.696046474033 13.768042537685 -2.428109188565
1.967686112827 15.261132613627 -2.597002789305
2.194234087241 15.368981519072 -1.550449939368
2.222000803064 15.346954678097 -1.710697273010
1.310464798190 14.742392491645 -2.600782591197
1.908647959224 15.248399731654 -2.627662639245
1.828481208133 15.236319278471 -2.437730389528
3.748766683902 14.310982691700 -0.002891802940
3.906575268200 14.230216657707 0.026572539331
1.787203941705 15.260319009951 -2.320489667766
4.045277860669 16.886862084424 0.040641977563
4.020963150383 16.926761168498 0.018579834271
2.414202292605 13.552562411679 -2.407966599905
2.236383891251 13.562005663614 -2.394849964220
1.596118973248 15.256961243905 -2.031955044864
2.412174520484 13.615992086813 -2.401191254097
2.479138187539 15.546769934885 0.017375511358
1.608784989220 15.304696272719 -1.905527345151
1.586043456074 15.312096170194 -2.020348639133
1.813339026324 14.430672890058 -2.577212700451
3.204237030533 14.898874098294 -2.470680619857
3.156653050856 14.450935319323 -2.379378986855
3.186025891701 14.691954902964 -2.561474292613
3.191534484164 14.551382279166 -2.452348511764
3.180796825921 14.552552438753 -2.429358803145
3.135333049405 14.486348904284 -2.439308302939
3.443928463091 13.853600749527 -0.830639830010
2.251315479761 12.824135950552 -0.938002776391
2.142329452293 12.816844792396 -0.922556249287
1.302665421270 14.108329885535 -0.024753882131
1.300613089837 14.030816546222 -0.024562926845
1.298097107695 14.061877139074 0.022454290728
0.049173376306 15.448542735907 -0.272312532896
0.042319210678 15.355912374442 -0.216206814021
4.253422841539 15.640985822210 -0.407668393286
4.198775027295 15.597239203836 -0.399559383111
4.192438640113 15.640006520892 -0.437654734264
2.206592652023 12.740665487499 -0.198469228591
2.178797896456 12.808377468224 -0.136018641165
1.771533990326 12.837768793822 0.055631081604
1.799009715604 12.812568024993 -0.014247374110
1.245471020925 15.749517458305 -0.065386799900
1.252091631269 15.820378414502 0.008461902584
1.263100642482 15.808911838826 -0.061468552937
3.923393935618 15.569305897521 -0.674052202517
2.450588614774 13.328167202274 -0.075579411802
3.835555718291 15.562520782494 -0.647122663655
2.131407140950 12.662501535265 -1.793859282684
2.126555999240 12.673028502430 -1.736898926964
1.624785704072 12.662990107865 -1.672442018060
1.581348086561 12.716102852160 -1.688775375437
3.252650528566 13.632457023227 0.048745705836
3.981994802853 13.640494726262 -0.000006668458
4.080486729904 13.649622044879 -0.035678753744
1.867635461680 16.250106399913 -0.736578020895
1.805820605438 16.194817043654 -0.779770556478
1.833167166870 16.185394985317 -0.727989153949
4.676632854738 13.701589689001 0.019587827601
0.079821687230 14.966101270997 -0.025960346359
0.027154612135 14.896061122893 0.002700732759
4.690931427107 13.791422005262 0.022349906034
3.044334733302 15.488508566528 -1.009121127217
3.068728191540 15.474548154993 -1.004784374521
3.248973189697 15.122194394086 -1.242298338975
1.965043355600 12.727534397397 -1.281986112461
1.905592956592 12.738285567672 -1.217759207291
1.933711875686 12.712000532134 -1.255419869266
4.670279344108 15.163148900270 0.019289794612
2.128070722697 12.770985012503 -1.070233797988
0.589393974624 15.521943131440 -1.121637185938
0.551852020481 15.495888708964 -1.155352161989
2.117766046346 12.749057755189 -0.991137210277
4.683884023938 16.776260730953 -0.002645337949
4.681088861761 16.876317145977 0.018367499732
4.497581156289 17.858096515378 -0.343526118983
4.530703561386 17.853654939142 -0.388898062904
2.060027847519 12.813826509356 -0.736497674999
4.004209040790 17.573828318837 -0.040678470622
3.742422377684 17.508683096972 -0.009403392542
3.707372549357 17.499676684034 -0.020114446162
1.027625318563 15.699593371773 -0.164382696065
4.073771003361 17.754990526389 -0.313924625793
2.442566024516 16.752045160335 -0.040427623354
2.436911254328 16.669130455257 0.061909240883
2.149529218726 12.768449438354 -0.248675105256
4.079838479242 17.787676059956 -0.261930625732
2.153750590599 12.849179738420 -0.203214414698
1.646270115048 12.786938366593 -0.141110752646
1.613451312627 12.787989107641 -0.099326435836
1.652501051146 15.785781953297 0.006631917827
1.382761413230 12.683887596928 -2.216910419265
1.456631644541 12.681408294044 -2.194904301568
3.752681342181 17.709468314691 -0.501889460472
0.263182457417 15.403984057631 -1.095216719884
0.461545393430 15.376247552669 0.007242009419
0.361468638026 15.337217809687 0.015200681705
3.756317327233 17.652700138490 -0.492306953367
3.660423063334 17.614999623624 -0.090015820509
1.513477968482 12.716535742773 -1.801524171675
1.518065656541 12.747908724210 -1.791813113881
3.611086327124 17.633396512413 -0.060043660304
1.357375245856 12.899390858903 -1.640123131520
1.306787929694 12.955508896481 -1.644819085396
0.949860229040 15.598560461511 -0.248323802446
0.999423653932 15.649442395789 -0.243776949740
1.577824105467 15.979669484961 -0.265662162521
2.617267669938 15.340704500704 -1.699674685618
3.285432342889 17.506948557655 -0.334016756240
3.231779172864 17.450062428449 -0.373336904204
1.317226367807 12.990468519912 -0.844193543664
1.349393697294 13.037403806767 -0.827236558045
1.288089070311 13.744547364412 -2.098754714996
3.227724776455 13.645353067886 -0.003273671993
3.201388522128 13.628383488183 0.008202840495
1.291589972442 13.785567873527 -2.196906256133
0.712846874773 15.528771044779 -0.377634317975
2.902101488811 17.244277276130 -0.167621603151
1.520053409415 12.825661463795 -0.226932118171
1.580991734258 15.947664166924 -0.314772322856
1.604640416060 15.991076530875 -0.339359135681
1.525806060033 12.828152705996 -0.172560804731
2.877908184946 17.262912859229 -0.176238698581
0.611435754014 15.495789444054 -0.426749990064
1.418640147089 12.886771619742 -0.031621201493
1.434767398201 12.784388090574 -0.027364301066
4.585087896044 15.036240164315 0.012207534399
4.579586522052 15.076224746150 0.004897212137
4.516949344988 15.410515538786 -0.021013376489
0.759130481828 15.484594022907 -0.501521794529
1.380556705556 13.418642079202 -1.077872801429
3.155589730982 15.435259787232 -1.259643299591
3.063157517998 15.396177427202 -1.261951948678
2.612094590901 16.994580155714 -0.470177783861
2.482515216937 16.930478052271 -0.434141186139
2.574988339815 16.991122954181 -0.488191542757
2.466609872085 16.916782298415 -0.590727190633
1.303980858511 13.542421796471 -1.612984997331
4.111612827965 17.581465930086 -0.051468273587
4.084823649954 17.508951994081 0.048119605604
2.441201805286 16.931942960942 -0.628587083767
3.607367868260 17.304278179996 0.014428413505
3.099537738556 15.507413627546 -1.186965528737
3.119734344817 15.393767482247 -1.222420545776
2.218996481085 16.680693211467 -0.306511301990
1.348696484514 13.443691313874 -1.470892893623
1.301957886976 13.472195917258 -1.535254379502
1.362021567619 13.354393226336 -1.917274539973
1.785634185063 15.839211675523 -0.009373617298
1.722695854975 15.781241816943 0.032995339281
4.024500879665 17.783798631917 -0.199606691866
1.287473216518 15.454953904346 -0.004171039641
1.421059472248 15.404940882363 -1.443522848446
1.432558731529 15.383326353178 -1.385198850704
1.305515517964 13.304508378018 -1.838782524451
1.345346253017 13.248421624820 -1.830605724437
1.550433183853 13.994286956789 0.034665251793
1.566920194247 13.866365513308 -0.025823104421
0.622316050934 15.436411620052 -1.260202376648
0.607698847239 15.474852313230 -1.180290702000
1.228188736414 15.634314645279 -1.015603905663
1.355814239375 13.224247121682 -0.577909112629
1.352137357491 13.193283090979 -0.593395693557
1.298352571352 13.098305208783 -0.908975123430
1.312253985651 13.082214019864 -0.903111326064
3.050659090122 13.749831213464 0.015337855036
3.100808125451 13.791552842160 -0.003628299614
1.319581229537 12.958938308241 -1.632729331614
1.316285201656 13.022615018316 -1.693333116757
3.768222685212 17.087434477020 -0.599840280520
4.090179799169 13.928025421159 -0.044867126880
2.901428954677 15.867998196134 -0.768477856714
2.848882492177 15.856312471343 -0.841650412214
4.455840031118 15.390061018357 0.019911647965
4.499120561442 15.362999314295 -0.002385249212
3.140915308141 15.446631130139 -1.156009603818
0.407569856813 14.599837496108 -1.505416372046
1.147680565789 15.555587837170 -1.053557009558
1.182829773185 15.555279355352 -1.044592182685
4.412087888251 16.714887164318 -0.021623223631
2.209011948324 15.851928695832 -0.925301519102
3.736016359914 17.334596106606 -0.006767706428
3.717426763497 17.307059163843 -0.030358901825
2.902303380073 14.078436941409 -2.484060563520
0.485616667904 14.614929128409 -1.441613583843
0.527774966371 14.540609103436 -1.512451249955
0.564444351459 14.582635180944 -1.633155663056
1.537355285601 15.404925260757 -1.340252117164
1.483986194233 15.388080735087 -1.299759537703
4.673707925519 16.791220078700 -0.343367286015
0.572091608873 14.615332633924 -1.542546820422
0.577596923729 14.539774698736 -1.613884669615
1.342153954154 15.404846418914 0.004022702962
0.707937694006 14.632144619783 -0.251813960044
1.718244286001 13.177725369944 0.019343413093
1.026969361084 14.947920565394 0.020849879026
2.859749315784 15.255683617780 -1.979056314562
2.862526395328 15.322769699094 -1.973052884965
4.506891513908 16.369855929978 -0.339465720139
4.573799312143 16.303563787179 -0.305291660579
4.531095782958 16.067595640740 -0.201939157541
4.515549459566 17.375637121671 -0.465762604600
4.489673634600 17.385307007803 -0.475465438934
0.067365524833 14.655897036509 -0.358746680383
3.172357425643 14.973223430435 -2.254014396502
4.540596845612 16.170198423919 -0.264690417213
4.543571636975 16.127512985939 -0.304091750433
4.495434319827 16.081567517499 -0.290724197670
4.017129517160 15.517698286095 -0.667743362811
4.082909061632 15.454155306041 -0.725547272953
3.729614719556 16.490846617499 -0.577622052278
4.680187068553 14.592820899466 -0.917247443832
4.622126611690 14.696778705989 -0.999039701210
4.651085307573 14.688620959162 -0.923598660032
4.129044849453 15.415163870384 -0.654517911970
4.018526665960 15.399637561714 -0.644814009065
4.500907308175 14.367556208069 -0.907730444610
3.877460840639 15.338090712360 -0.749353941213
4.480212261983 14.388707781164 -0.905202182999
3.671316561175 16.245329224001 -0.546813034475
3.697146701514 16.405706787517 -0.528797325894
3.784180962982 16.470110373587 -0.520312800496
1.264498289184 14.121450950480 -0.172063733756
4.300063791602 14.871877360788 -1.087909689413
4.245730095684 14.961457155785 -1.072893943024
4.295013832434 14.934267366844 -1.004139721759
3.685562788615 16.140443069795 -0.535453545881
3.708161518619 16.166199156831 -0.518972067746
2.768551905936 15.119014479773 -1.873946807179
3.611610592509 17.627467180412 0.014828917919
4.080635804824 16.503538256381 -0.425687221670
4.031643187372 14.533274926822 -1.097147639579
4.084458339591 16.644230538938 -0.427812904793
4.087928292592 16.557846873351 -0.429928561657
3.985316119328 14.523024013858 -1.131202629478
4.709825308921 15.430487512759 0.007552432452
3.780405415354 15.078506002346 -1.367294754525
2.000793801455 16.449588571990 -0.314381506145
2.022950684208 16.472813984888 -0.221901912306
2.060792011216 16.412940433080 -0.296188321452
3.734896087817 14.652574743146 -1.341987389196
3.708121389912 14.702986346965 -1.386432129367
3.712943665452 14.649562504426 -1.379046106486
4.347357460685 17.795497209401 0.002334924018
4.307256714917 17.765333567696 -0.017536122494
2.431432899065 13.188939586016 -1.533528080378
3.420559898364 14.788791175897 -1.671455475350
3.459394750387 14.908938176671 -1.712203000550
3.480928060488 14.840622893217 -1.679356217865
4.003643186136 14.963262672033 -0.002298546616
2.875546000916 17.219058813041 0.022167271685
2.860157461499 17.238230148176 -0.002177098616
2.457518946153 13.054560924812 -0.458543899725
2.424703308969 13.064085700680 -0.434617941690
3.349025919295 14.427093689352 -1.845440990652
3.347852344332 14.421423176722 -1.912883504230
3.240377439390 14.377352758310 -1.901294468914
1.325310912486 13.546719676857 -1.717959547930
1.632739389707 15.937612537227 -0.011022396681
3.218771779405 14.912175312780 -2.273874490194
2.375043876560 12.793172079068 -1.772250711704
2.349702386992 12.735838777093 -1.683314432723
2.364610372694 12.781330100373 -1.687533474714
3.191073546533 14.529785002829 -2.275002231345
1.618619094904 12.788146110839 -2.273915818571
3.200706403996 14.623413162484 -2.322645156445
4.368151205613 14.422667095338 -0.478954238663
0.759472011909 14.596055746050 -0.395296634139
2.877710583066 16.868308275695 -0.661018575234
3.979310815909 14.392071464507 -0.840932292564
4.023401985291 14.351065852081 -0.917690831600
4.009330221420 14.313769589163 -0.873483752070
3.178879266935 13.512546273024 -0.055854119470
3.166608388826 13.516799801575 -0.124107014696
2.357890624876 16.137968628738 -0.777516561796
2.331038991351 16.147816844347 -0.785072622104
2.266751886337 16.145881831417 -0.790071220232
2.250042729404 16.199758134372 -0.749122339539
3.004861344041 14.254204563557 -1.639774523560
2.863641762364 16.857202212669 -0.620069271862
3.190764022044 15.535945294574 -0.812739854089
2.494861627254 13.374029486180 -0.761803748254
2.528994934448 13.345566734938 -0.763789960852
3.196125150307 14.345118835891 -1.325642802952
2.869078668218 16.838017069530 -0.679835280672
2.701449490532 16.697769603213 -0.728120152061
0.263239535117 14.538663671424 -2.025514949923
2.263825113264 16.188328019916 -0.765153835639
2.301945432184 16.222603611346 -0.754527523069
3.263085917112 14.211834518660 -1.600415971287
3.322185090570 14.257518110289 -1.729894818568
3.262961466924 14.231604093673 -1.646966503052
1.706869481853 12.883714181596 0.015559794547
4.789381251845 17.320211269791 -0.505630232016
2.684068464090 13.278109189767 -1.997020375114
2.625985536618 13.320951961211 -1.965429011553
4.177283627010 13.584487537672 -0.214504928571
4.742994836931 15.861616409828 -0.198175007076
4.204693739220 13.919514773726 -0.392886373506
2.857553150143 14.180472529271 -2.006366339141
2.986654364067 14.144472105218 -2.092823951767
2.978865501110 14.142687715354 -2.105445228964
3.499742388303 13.483617090228 -0.666368063204
3.429145780761 13.551441078921 -0.624580372430
3.413087205321 15.636261244199 -0.596233721720
3.389691356602 15.517795546335 -0.609878136076
3.358939537349 15.601735319763 -0.619795648205
4.566902657765 15.217698653769 -0.705103967203
1.413875840755 15.362634252158 -1.576132901158
2.933436645590 15.575549237812 -0.981134137358
4.430800001274 15.217571151441 -0.714524884981
3.741675145408 13.562930280555 -0.247564074132
3.268356686534 13.529898854266 -0.174521042735
3.217276969950 13.534599539529 -0.146754537252
4.178180918052 17.188714414043 -0.510537152028
2.866520754792 15.547010074937 -1.061005921391
4.098478134920 15.192439524055 -1.021428428225
4.019375077907 15.137875444507 -1.009040390836
0.299348355991 14.685030136070 -0.209164382731
2.896913861074 13.466583879036 -0.198364462894
3.347345958612 13.512926343196 -0.634191216518
3.430601021147 13.535915892287 -0.593233695996
3.713965240973 13.555809817691 -0.292040102722
3.374512717853 14.366642073503 -0.980898555036
3.450676234604 13.579301505925 -0.332740417328
4.226966854812 16.601130361679 -0.427236016115
4.096383782294 17.154065855292 -0.493711096477
4.121995906533 17.135649288608 -0.539558701808
4.455711070449 17.386361171766 -0.512259679515
2.571886042006 13.358791298341 -0.731818507772
2.559366837860 13.415292404768 -0.760931395642
3.692942679140 15.040109188649 -1.407777106667
2.721434211052 15.365678530550 -1.724921998378
2.728073434937 15.339935211407 -1.725420686401
3.459016190492 13.589124349628 -0.347155504557
3.157849760158 13.528048147996 -0.373733084698
4.665179703375 16.246632917684 -0.304612118035
3.176422036040 13.465864284031 -0.394802549423
4.697830088193 15.936993605611 -0.219018113858
3.287890904860 15.084464315120 -1.711511853701
3.172003228558 15.040490637472 -1.757406195838
4.857081933606 14.026067342167 -0.258581707246
3.431981668132 15.103851593097 -0.049097886220
3.310229764801 15.083123830400 -0.024489250429
3.363752904444 15.196080352245 0.010402840841
3.850218066596 14.214567298334 -0.630062084700
3.033337955264 15.803367894172 0.016292470188
2.967334587471 15.769602800737 -0.006154669796
4.799086617958 15.213216612786 -0.473189218099
3.189075510097 15.755010815240 -0.006940533756
3.154834218718 15.754352983343 0.042222487786
3.805473910178 14.177905595466 -0.650134819325
3.826640926288 14.212001627588 -0.610307325708
3.200275036575 15.665662010076 -0.002634970537
0.648586209407 14.509485354640 -1.964544389523
4.779890036035 16.811939906852 -0.047070460733
3.357526653082 15.297542923947 0.017979214579
3.704356298197 14.023837326472 -0.648677378376
3.757123189714 14.044777745925 -0.625092218814
4.794226359055 15.235185521522 -0.042167903678
4.822241370925 15.238399351708 -0.127131913751
2.816770311910 17.122826118552 -0.585900595931
2.862429030562 17.150026155629 -0.556799666059
3.631501263339 13.944911482203 -0.662237492441
3.624411658741 13.978740001255 -0.631640848358
4.813756869696 14.009458635407 -0.216303361452
4.816668256063 13.950358189598 -0.187563287309
4.884330599604 14.053930443569 -0.178899371749
4.240960617293 17.685001790052 -0.456517399446
3.547170927128 13.865498170939 -0.718744189219
3.558699822474 13.884565600827 -0.681094275290
4.862832142387 15.346757895368 -0.106071019632
4.834183736913 15.291849074865 -0.159312071183
4.278878629889 17.680499022627 -0.497015752517
4.221857332222 17.629291761267 -0.500960025338
4.457430674182 17.851071308055 -0.057464188609
4.827742149974 14.869337408627 -0.865483828519
4.852248410635 14.858122324304 -0.847534255917
3.739336215330 17.120191763664 -0.620153343898
3.489359305131 13.740725447116 -0.769710784528
0.673103352583 14.603568503348 -1.003531311727
4.782842319548 15.104525169968 -0.545696481187
4.825672984323 15.129174253726 -0.538273338784
4.810531405650 15.038996878469 -0.293158918990
4.801493247662 14.820722164735 -0.751334699883
2.254676973416 16.006478480731 -0.814413917224
2.204337071212 16.050989951289 -0.783451660739
2.119987142642 16.019918017030 -0.806019889683
4.834076548441 15.033868717504 -0.346355213715
3.419713938306 13.633825094863 -0.801014999979
3.419832942127 13.679612831224 -0.781028515175
2.844529362475 17.029995065869 -0.651701579564
2.883265745251 17.075054500267 -0.631009711306
1.692707730336 12.790086765324 -0.638554457335
1.400459867594 12.713378157855 -1.632876835448
4.838358922537 16.944361488156 -0.366001236379
4.820733497110 17.010472056781 -0.375346368084
4.061831314439 17.580855940414 -0.537378280692
4.091776734936 17.534038367782 -0.493725414139
3.982646643650 17.522668566463 -0.525591712867
3.736242543150 17.171297418466 -0.584433217359
3.660374407014 17.115667117489 -0.655666502577
4.549982894856 14.344960110507 -0.828706503438
4.410993976356 14.432047453318 -0.531045635818
4.852426218757 16.928251164606 -0.178449051527
4.819325306969 14.971499473836 -0.376191425002
1.597862449876 15.321545466388 -1.706997606292
1.575626490211 15.315938733112 -1.705169579942
2.056320841034 14.666842783006 -2.600889060459
2.040569324681 14.671353540576 -2.590633692961
2.270702726069 14.636445394730 -2.569471209640
2.852609637313 14.546469629148 -2.541132960530
4.081463061616 16.455243305255 -0.054079788212
4.131370086931 13.747162120460 -0.434033201405
2.199931295982 14.565548015490 -2.589953359978
2.257614604097 14.592594163730 -2.588424016146
1.205169549145 15.243736590073 -2.434526667352
1.229960387026 15.246906841824 -2.481377745141
2.914177891220 16.030889004130 -0.005962156890
2.906922475693 15.994786542273 -0.009289014836
2.108399914037 14.226035881507 -2.486772673022
3.883029295627 16.701645425349 0.010351328741
2.069619320012 14.302853761080 -2.548727901512
1.069751789229 15.265524259726 -2.159055294320
2.754450115406 13.817001171606 -1.905934692384
1.064573781447 15.244579327579 -2.058721899761
1.035014934114 15.319350487133 -2.150300801703
-0.027494392856 14.645278779040 -1.697075431989
2.596842413928 14.849305282225 -0.016510934756
2.862925616501 14.185932774564 0.022699903569
2.889302806327 14.261281373056 -0.029677344009
0.807205726188 15.337213720535 -1.748989369973
3.897307547309 16.599397766789 -0.009046192678
0.836001123013 15.352100314562 -1.707699665894
0.793311830598 15.309019888398 -1.771827646244
-0.072695324328 14.731953550164 -0.176733952911
0.021366926684 14.776337362103 -0.158489024455
3.991908273147 15.050311270064 -0.026221999594
0.451283342816 15.237650388441 -2.581972413429
3.953811899992 16.430143308930 0.001211143520
0.506341909957 15.219062787004 -2.415256603556
0.395031343610 15.220056497577 -2.456309141261
2.749595696256 14.813720585677 -0.029925705367
2.723059593151 14.772992160878 -0.015268783838
-0.042763023360 15.268343928553 -2.111797872354
-0.023988559734 15.198111390950 -2.122871588436
3.653588376911 16.414852500667 0.027797009722
3.626855676035 16.434723664041 0.017956733009
0.343017095514 15.292871876261 -2.130112155100
0.335635818422 15.260617402297 -2.076955650067
0.347625350491 15.295981824569 -2.143941242443
-0.035397968716 14.709663303661 -1.709179588466
-0.009975020788 14.822199907069 -1.482445736070
3.746136607473 14.696710932803 -0.016636326013
3.883358134920 14.961190029883 -0.028036827905
3.896007220123 14.982060726924 -0.004256781171
-0.062739948411 14.820777558733 -0.275254138054
0.049994653664 14.818201942044 -0.208687762967
0.118258502657 15.315313462880 -1.773828050865
0.008535253378 15.104211805939 -1.852051100446
0.069765970279 15.153591047722 -2.095096355218
2.944377974673 15.763910582284 -0.025770000014
2.812506851821 16.923756069728 -0.627703719057
0.002676155378 14.805348735710 -1.571345571048
0.002550580963 14.878604343745 -1.585782048223
3.128661295967 14.295182396615 -1.273392583089
3.104932260974 14.237849102064 -1.229698931705
-0.005076136143 15.102383717993 -0.259742602045
3.129670704213 17.411711831965 -0.424610350875
3.432692013278 16.134634292987 -0.059996424577
3.428010818745 16.007416713129 -0.010151156723
0.016892057389 15.071523754795 -1.780045923414
0.029684351741 15.087533177880 -1.852318812694
4.382977080138 14.467011570592 -0.444130499991
4.363175638529 14.391493601056 -0.390685093338
1.257609540817 14.977173718591 -2.598757312203
1.516636891537 15.050860400669 -2.642077750314
1.555850066816 15.023741080767 -2.675265380550
4.097880422597 17.499225574986 -0.541772195041
0.319892275286 14.547709308125 -1.981774171903
2.886935085889 16.477766145794 -0.002794927308
2.603349401840 16.211104797908 0.009150781090
2.568655109752 16.146133947604 -0.033944871263
2.912750489506 14.242586260407 -2.513846546252
2.850803247007 14.278760639432 -2.535496043968
0.085685644859 14.616303038411 -1.673772255841
0.093197272430 14.620778865507 -1.579528629305
0.095652365321 14.564221055707 -1.599088054900
1.309407761724 13.213597441578 -0.783049040818
0.189152545343 14.787720588532 -2.591974486677
0.240631095390 14.818627195462 -2.593638904215
2.371181732380 13.394727861216 -2.368178248851
2.520510366481 14.046554414843 -0.009083198316
1.811717824089 12.747712720365 -2.301306074302
1.734922087040 12.743716072994 -2.246248451647
0.129273395463 14.656695599123 -0.821053297548
0.043359046310 14.686388048590 -0.813898299930
1.361099233371 13.907405991600 -2.403008070050
1.352983985674 13.936321040621 -2.438324563979
1.022998839054 14.419722473034 -2.536948956336
0.300882681145 14.688827520320 -0.232981325154
3.029990857487 14.715337138905 -2.595109968649
3.204304348243 16.618993745041 0.012493688664
3.019525129432 16.420964452500 0.043073679530
2.961835517430 16.419249794988 -0.023319424685
0.094939747210 14.655131954117 -0.116243264437
2.793429251366 13.890571900577 -1.860126399570
1.183340280307 14.986784807547 -2.604327730206
1.271554331625 14.991695615043 -2.714869389600
2.257732361676 14.933042777460 -2.652383047917
4.517045857588 15.199186600890 -0.997449478855
3.173800345183 14.106141405516 0.006241871761
3.735395403770 14.124622497160 0.017940544659
3.866348282689 14.148348206543 0.036635873136
2.553780030427 15.258589653119 -2.203473240652
1.330690218280 15.334229983357 0.023127893702
2.406332918222 13.476346012213 -2.385687125452
2.488260556324 15.285705717175 -2.092099745898
2.487206719584 15.279619784066 -2.140485204152
4.277776710979 13.982554818845 -0.385428657926
1.046055395274 14.798216711358 -2.619329824791
4.156342037279 15.874309686989 -0.014327141205
1.346518502351 13.219254333069 -0.712630350540
4.153486053981 16.500701444529 -0.010365212872
2.194900032404 14.864422791012 -2.640879037406
2.256866182367 14.870801443738 -2.614888612578
2.406966715473 15.315730463060 -1.766185419734
2.248427921292 16.309581384461 0.001003338812
3.240802263533 16.580371678973 -0.012872699827
3.185028466978 16.622802973061 -0.003239048204
2.332292503574 15.315534742394 -1.725273950572
1.130221989436 14.434445583985 -2.547766766447
1.113701562017 14.495867569996 -2.571321195022
0.927056807162 14.595049087222 -2.585277757440
2.543581981074 15.775920214468 -0.009161864939
1.960820218839 15.239287546076 -2.517566361221
1.001811516270 14.677602663964 -2.606657924251
1.949879637195 15.273719128711 -2.410036121426
1.906009802840 15.292555751783 -2.514902619327
2.135131110009 14.728896192998 -2.577634534965
2.562543808127 14.094362119241 0.001013311125
2.924075579770 14.156601116791 -0.017208451887
3.115726717985 14.212386721957 0.024194757547
3.216534937193 14.173847413997 0.035094111533
1.778285213194 15.286653928977 -2.123536659814
1.791705315865 15.334592217554 -1.505551467339
1.764347795989 15.270478541699 -2.035557333533
1.757140281557 15.295415141314 -2.130047938714
4.680827165971 16.715349026179 -0.354823994107
2.826409984554 14.460527157616 -2.555830817701
1.780512478760 15.304399825477 -1.512926506887
4.659844898341 16.677434993878 -0.386093526529
2.836769551949 15.993877681803 -0.005369451616
2.581478777770 15.841724816941 0.023253043085
2.591879801752 15.715152798848 -0.043304369675
1.570134108140 15.364191240588 -1.755100011068
1.694966610491 13.955717559513 -0.009279042912
1.378948046041 15.535496454292 -1.124800159131
0.809437904381 14.546482205204 -1.181921422631
0.796287489230 14.556489048774 -1.265289168819
2.358690980164 15.522286860628 -1.116037974491
1.795733324187 14.167949321096 0.055786731399
2.342044825004 15.517473746963 -1.128099442831
0.785220104860 14.339601677571 -2.308451780062
3.178807359861 14.013888765301 -1.138204491344
2.124585590875 15.290025907625 -2.032634896267
1.914188869042 14.313712203986 -0.006444505463
1.877165198225 14.227839558192 -0.002527140449
0.062824347163 15.126130631276 -2.663652189751
0.045615174848 15.068797139620 -2.668435720329
0.136458369063 15.097401960067 -2.658921394712
0.843779722229 14.368965364912 -2.256064902799
0.782062194609 14.292016420602 -2.363844878106
2.960612093888 13.852865451968 -0.012292011135
3.215018358259 13.862387389291 -0.015263605158
3.285295256084 13.883649374012 -0.030077839632
0.946430833603 14.401437393632 -1.021156721786
1.563667639586 15.142902776845 -2.753355924197
1.592138237906 15.107504914151 -2.680610603802
3.173884027479 16.930895697662 -0.013201865038
3.062308992737 16.911991257432 0.013395800834
3.029768906894 16.798669026120 0.044109853946
1.805288479857 12.621731151876 -2.069203752075
1.012365468816 14.236911067194 -2.186993623188
2.885363212954 14.183436061298 -2.497938461564
1.090941794127 14.195422917048 -2.091936791733
1.095091088920 14.200181658321 -2.054455884987
4.325854202294 14.793225004100 0.024263076666
1.162526172548 14.234760917260 -0.848581229896
4.405802916985 15.921787622056 0.021141342623
4.406416953509 15.975166823696 0.025258173538
0.138984192373 14.778386533647 -2.604148390906
0.054734520380 15.044937979999 -2.620421031872
0.105737896626 15.026424200047 -2.682487584340
1.220553172743 14.188384001352 -0.753586228328
1.185057357040 14.178118979457 -0.818906935932
1.897032441455 14.755365935609 0.030921914361
2.001068005192 14.636226433099 -0.003655212605
1.209969039413 14.051811801679 -1.850605856190
0.838896669482 14.561306327470 -0.582647901745
3.089009904697 16.786183469417 0.001215738558
3.020857882907 16.744744541890 0.005513446904
1.710055144506 12.695964778300 -2.283592599307
1.248798076311 13.977627868112 -1.827545389590
1.253024220592 14.017571627503 -1.918533627302
2.424312375502 16.201501699273 -0.010999887597
1.333595534172 13.975770363917 -0.614996333244
2.810773833437 13.883433579887 0.036705816469
2.844518957634 13.861387555916 0.003181745860
1.320570308137 13.958543191605 -2.453595220577
1.281899864052 13.931107736816 -0.561996203173
1.293998924191 13.885777911487 -0.533048910784
3.831291204411 14.121244740682 -0.029874160566
1.959211735243 14.750611514084 -0.005759523534
1.964643617706 14.662050551542 -0.031162729095
2.002434611863 14.631550623951 -0.005411567318
4.757278339315 17.857681176527 -0.312756367631
1.302684400933 13.718644646475 -0.368801433935
1.333915970991 13.725574254543 -0.424615613984
4.279589113055 14.785080601006 -0.054370883152
3.622002446972 17.629993548409 -0.133865511875
3.140618654103 14.673111130634 -2.559290836026
3.052176503247 14.628627738789 -2.616644334694
0.127650308753 15.337339234044 -1.323951627917
3.492114697541 14.352420729638 -1.538687643960
1.310634794843 13.775868900449 -1.586900733679
1.321410430187 13.727742427842 -1.641262258388
4.242370679767 15.940908154926 0.019483442683
1.361408107911 13.583375338247 -2.004641995124
1.322326393997 13.575665072864 -2.077250361663
0.255050992280 14.442978597030 -2.414531785858
3.096654203899 14.713076518264 -2.562644088118
0.100236681153 15.078368487914 -2.622779745695
0.255934511247 14.479848299247 -2.365071694143
3.003818090865 17.294910164820 -0.135896158351
2.940766878622 17.248248704679 -0.076649900117
2.883327743524 17.318108402481 -0.170357257504
1.423025642816 15.906665522299 -0.397901212360
4.561896133843 14.410176278704 0.024638493098
4.568113444669 14.444625417680 -0.002415913203
1.351302727972 15.852584427400 -0.401665463238
1.338713323428 13.592679561858 -0.399664128932
1.352264031034 13.732139489357 -0.509604968130
3.683011073187 16.601729618335 -0.613031515917
2.616136284691 17.085379052259 -0.467578629198
3.691333639945 16.585471829949 -0.599509266838
2.569721033209 17.068781344719 -0.416654237810
2.594569292794 17.030184714689 -0.492011283354
3.032612293410 15.853403860877 -0.872328185073
3.113822322280 15.707442195101 -0.889961902337
4.569785633109 17.544842982598 0.023452128685
4.193781938341 17.548366531663 -0.036974697313
1.572941671115 13.827621949545 0.006687702169
1.323833152700 13.457710317852 -2.066690499390
1.318004547419 13.530626229753 -2.139586485485
1.057164034259 14.628687063145 0.002063869867
4.026262097833 17.728072312482 -0.063195858807
2.315928044993 16.720699978474 -0.283958797854
1.134900134769 14.606214489494 -0.014122289323
2.231627313071 16.634430049388 -0.139061343060
2.277519432211 16.724585611800 -0.227740840180
2.228184462300 16.676888342256 -0.215729663289
2.624691341326 15.350060654842 -1.394668306324
2.540324807619 15.369304707947 -1.478345061184
2.490767141409 15.332837711982 -1.412057365110
1.880176928019 15.925768002764 0.003967468188
1.351820823074 13.321619725007 -0.540908803359
1.021020131888 15.404455045685 -1.463572509833
0.920648915636 15.365696284626 -1.468431566567
0.933638934475 15.363529038933 -1.449723419701
1.340520700477 13.316682611050 -0.459636037774
1.354351944014 13.317021505765 -0.490689952949
1.633606027287 13.894593045423 0.005942401241
1.307578626095 13.206299316822 -1.557066948913
2.391778844639 15.431745062027 -0.006727292749
4.541642355416 14.761188717123 0.002938865920
2.394205370563 13.692928802005 0.018405591244
2.366212779726 13.687237970980 -0.016731725783
1.798012564960 15.908291090946 -0.808373619414
1.812367017174 16.011286364118 -0.840868633546
1.295376739610 13.163457627517 -1.470809892208
1.351199693764 13.129056647108 -1.501826022648
3.348952940797 13.830736629871 0.051799035880
0.371856326257 14.678664799181 -0.207197914407
0.374328170783 14.725163701889 -0.282524572022
0.334369078006 14.657929725322 -0.221743528412
4.475416203985 14.691607272667 0.034506223929
2.904083437226 15.319960112277 -1.548015529657
2.604439312534 15.455965611988 -1.222440541169
2.651735976672 15.438054165151 -1.249932265116
4.479641269078 16.069722337208 -0.027914314210
0.406620154675 14.528611684519 -2.025987568450
0.331108481506 14.562772649317 -2.043388625768
0.317895642609 14.567342269109 -2.041598303992
4.268598251275 17.493248198497 -0.013703728613
4.274035288940 17.481380444912 -0.010805607852
2.733086728593 15.369740469338 -0.007636450527
2.701676187739 15.671056764648 -0.949392214146
2.525063117423 15.371076012276 -1.253769761446
3.030203087196 16.859161056531 -0.001124203158
0.653646264229 14.646976827016 -0.191413757342
1.992100142361 15.895038806734 0.011621219749
1.931568268812 15.879858853548 0.013959025411
2.729959417424 15.729140599423 -0.913728087307
2.623848721059 15.696174609061 -0.897358769590
2.293442771629 15.485342542909 -1.175516161289
0.691075818919 14.621061871601 -0.121291954327
0.624360733920 14.645899932862 -0.190450553269
0.710332765524 14.596383486216 -1.240649737710
1.656213971204 14.001910510373 0.009007486209
2.418276841279 12.914305156685 -1.327353778243
2.364516246698 12.936994792769 -1.285836617808
3.208912938900 14.635897955215 -2.351672664694
3.230561314207 14.546646056161 -2.369864466763
3.219264995021 14.458570088272 -2.305040706669
0.095000257212 15.346856244927 -1.359448135495
0.068927773429 15.335543826379 -1.322452702958
0.083463743345 15.353774541239 -1.279652426463
1.083962152493 14.421830652068 0.047597674120
2.399703504447 12.916586997707 -0.814320713978
2.400176992944 12.828987100347 -0.755983294647
2.373357822239 12.902112695370 -0.766057204302
4.145627110644 15.606530534812 -0.280084989860
2.102485754914 14.893523142896 -0.034852471766
4.695524296283 15.587360383585 -0.445439981844
4.080570622273 15.588416051672 -0.261305767575
0.216842519371 15.436235096347 -0.118733353132
1.477692322904 12.879721197505 -0.019345371043
1.473464888492 12.939769686260 -0.037392811465
4.824091295028 17.673013057200 -0.184402437402
1.782203727440 12.641412200046 -2.096590061376
1.831568749026 12.653236319491 -2.091242122313
3.813485730230 15.566833057106 -0.514117907802
3.745317975524 15.559944495082 -0.547328633870
3.796189685017 15.570851978318 -0.623408247873
1.611876160998 15.973495627425 -0.100359933300
1.144618037123 14.517508372220 0.035269412267
2.542681799084 13.521407118558 0.019353292462
2.009214073913 12.671661455558 -1.654152759046
1.965198402973 12.682562641498 -1.619019226466
2.006146149914 12.728869344705 -1.608650787850
3.541243566790 15.526078006133 -0.907438225656
3.458408739054 15.524730875754 -0.887949924603
3.466117404779 15.531245097697 -0.911472149066
1.547902482132 15.975878888777 -0.756550363557
1.524052203914 15.926498706436 -0.736301650829
4.622449768843 14.467972655241 -0.009290605996
1.688898143717 12.767022663426 -1.111954120403
1.739967716096 12.772179386670 -1.052604148021
1.702867642460 12.731808853173 -1.001616340741
1.730071086512 12.777286116805 -1.087301847127
4.699778683294 16.130655529751 0.040476246343
4.693242877474 16.194371832280 -0.011947086955
4.618427199257 17.796719627274 -0.357344481903
4.569130342309 17.798123895720 -0.414399378790
0.128296087531 15.368795627658 -1.330807149425
0.160479262933 15.386306390770 -1.304154355329
0.120435424857 15.372337862902 -1.357751948615
0.188379109826 15.361257437588 -1.210366859930
4.623319004297 17.623271062275 0.001510821502
4.543130323514 17.564066689339 -0.018989490901
0.218469078484 15.447010309487 -0.145863595338
1.816185609359 12.765283713762 -0.557389476914
2.762841208448 13.691560284514 -2.005528315346
1.781568312102 12.765635349679 -0.497238114999
