0.119935794230 -0.219295406079 0.127914273972
0.109500996288 -0.368029678716 0.112759705971
0.161597668588 0.324574990675 -0.449632735036
0.140392354097 0.310926019220 -0.477089302471
-0.372642058112 -0.214356374394 0.455423695048
-0.139264997232 0.477313588148 -0.121660428376
0.252749962398 -0.466955299345 -0.078360466133
0.283863454476 -0.467181230750 -0.078159273175
0.212316175761 -0.439831997438 -0.300985078164
-0.368366523351 0.444430659655 0.261452360875
-0.380969653369 0.432209489234 0.303091937142
0.256947896081 -0.136869052918 0.075234156491
0.381492480576 0.416042235478 -0.230563737212
0.185993252623 -0.005493779749 0.120615267341
0.201606804120 0.016270449068 0.117299497356
0.373251038097 0.456554804640 -0.102615809775
0.047914218411 0.298919186918 0.167033568357
-0.375579545781 -0.209967896164 -0.270753218713
-0.387505272870 -0.200958065874 -0.270542045023
0.316605885038 0.441326580372 -0.364252435309
-0.001070805076 -0.190414620901 -0.467278833013
0.000135860266 -0.183857839261 -0.470860346860
-0.133743399577 -0.152600085476 0.144245091030
-0.310289694704 0.499793027642 0.365953124398
-0.302857328479 0.483123282827 0.397696314763
0.060544725690 -0.145695334888 -0.482505751140
-0.313410092714 0.504041960453 0.390826406729
-0.314003276953 0.488737060403 0.371949356614
-0.072798510309 0.021101613596 -0.462365724269
-0.084084041315 0.001601179478 -0.473740483339
-0.324487293964 0.490074120368 0.440081121197
-0.319734308560 0.480840878038 0.421838549413
0.209167490056 -0.393366475070 -0.035312156896
-0.156876608073 0.374031753855 -0.192500553184
0.182834693244 -0.179508756568 -0.016496044699
0.202885553591 -0.192520344757 0.012637843763
-0.378855233889 0.367337563384 0.281730726238
-0.080793196164 0.151232874223 -0.469418449680
0.363246273253 -0.403762761005 -0.235029277466
-0.065709342551 0.161601386751 -0.484709432060
-0.058146593706 0.166737036604 -0.475324413376
-0.068349643561 0.137236275605 -0.486008046906
-0.375416655540 0.349724048320 0.186448584174
-0.391450511141 0.357481447339 0.202314757792
0.021815012801 0.153709384684 -0.477877247142
-0.262944119102 -0.499981784066 -0.146824553997
-0.364139756178 0.084651494905 0.294941212291
-0.391560916082 0.081642141657 0.290665496055
-0.193459694094 -0.513684677328 -0.152124615961
0.032753238164 0.237289697541 -0.476791243339
-0.001914403420 0.192803539432 -0.467420887774
-0.370293493564 -0.247039454330 -0.373293122939
-0.185658051103 -0.491926622101 -0.190849200874
-0.187555745039 -0.516858079608 -0.230211295128
-0.036088168467 0.042674098625 -0.483993696007
-0.036016502147 0.001936183136 -0.479132795452
0.037373422397 0.028624791069 -0.456303489178
-0.124837932138 0.495242102678 -0.027678802400
0.045736466046 0.123142917672 -0.480674193100
0.035505371241 0.111530925368 -0.468254856624
-0.346120790318 0.007226559024 0.476386746463
0.150680915669 -0.125935671551 -0.453091447382
0.167016166796 -0.130346560855 -0.484932758144
-0.370200585914 -0.100524332771 0.239874421763
0.074996209089 -0.214047012653 -0.492510109472
0.064626877698 -0.250194049011 -0.461615096119
0.044403267068 -0.188508057361 -0.488430802342
-0.167544333187 0.370359144877 -0.149068470265
-0.095893158447 -0.480568639797 -0.333135177982
-0.323236772460 -0.516866184351 -0.153904782612
-0.325015469281 -0.475825789789 -0.183648051024
0.370269155802 -0.393162984111 -0.211663696172
-0.161567975282 -0.345283525691 -0.153420615687
-0.142426417921 -0.350270577638 -0.138627044085
-0.360788095461 0.149234404443 0.323910007876
0.139120861683 0.279641642059 -0.465445780194
-0.150914354397 -0.497191763323 -0.039203055182
-0.156697194606 -0.501280642086 -0.049998882290
-0.290514751150 0.498188363938 -0.198110500807
0.164585641611 0.158391022196 -0.454644777484
0.222966106179 -0.206110752806 -0.427121365217
0.246274322455 -0.211241968306 -0.406619371085
0.233101028793 -0.229890678421 -0.422675770633
0.353252728561 0.050213265566 -0.225115844650
-0.144851228605 0.397063094269 -0.116251217366
-0.384257245656 -0.084081941037 0.281156235493
-0.376890912048 -0.092214824599 0.262707967156
0.244740698292 -0.081063256619 -0.441469290270
-0.338592780152 -0.095916940854 0.282017120919
-0.192944004430 -0.519632755641 -0.047566570316
-0.194471179877 -0.476697608094 -0.033014147104
-0.165233813424 -0.506788079841 -0.065431501168
0.137983425835 0.040350588743 -0.491799949263
-0.306016081754 -0.498450501045 -0.178376100156
0.193307494433 0.215774857647 -0.480221599956
-0.310529358995 -0.490428305850 -0.368162865731
-0.148161157065 -0.334792585192 -0.111888532920
-0.149508391123 -0.329254716772 -0.127347998239
-0.158117805444 -0.505598629269 -0.029565593870
-0.197204068273 -0.514388893384 -0.015527874269
-0.191241182535 -0.516285039596 0.001768584734
-0.208074913922 -0.513427811228 -0.036744574750
-0.248478704414 -0.510085638373 0.055513351330
-0.175826656549 -0.515904781960 0.033880935945
-0.383104504306 -0.184838700535 0.398937681736
-0.374909209519 -0.196656840064 0.410605340741
0.346979698936 0.096597236746 -0.222501837490
-0.356119677703 -0.497891480586 0.062802786077
0.221243036122 0.038461862242 0.121688414493
-0.285258148002 -0.493380361276 -0.104111492158
0.246233939242 -0.179279336365 -0.402437153164
0.385211535696 0.345472413294 -0.163116330479
0.352426897182 0.394869013039 -0.155042171384
0.255174897209 -0.226967202597 -0.403105250096
-0.377849461368 -0.040442976898 0.457802778371
-0.373991443741 -0.069345561687 0.417248406135
-0.175069398905 -0.500872437452 -0.371396431773
-0.153011719794 -0.498302141128 -0.346515186003
0.275165443183 -0.200174737335 -0.371972871714
0.247057469374 -0.184516254206 -0.396744660290
-0.151619221126 0.392086772786 -0.085661926917
-0.365375082555 -0.482537730963 0.414104075972
0.363905416982 -0.131398519863 -0.247031186663
0.365407725008 -0.098629041233 -0.252308585764
0.218796064447 0.323532847122 -0.411608971446
-0.222081986007 -0.499547715175 -0.280784293187
-0.238937419923 -0.479266791632 -0.274975938254
-0.318206352145 -0.133141373974 -0.482777992329
-0.122850024903 -0.327273023165 -0.065008728345
-0.125743526658 -0.319047842278 -0.053584485850
0.221820113061 0.104097368948 -0.441312345889
0.030141156782 -0.387940956989 -0.399250696541
0.307386733309 0.284414354865 -0.355991051245
0.313793958048 0.318807663010 -0.339104835416
0.317585432768 0.315549737606 -0.334910183295
-0.406799699050 -0.045153405586 0.444414923551
-0.346164780809 -0.032139984473 0.457520479528
0.066919806391 -0.411730698840 -0.453360295788
-0.199065378948 0.522101198545 -0.186074261411
-0.099590193325 0.350571101766 -0.010854229493
-0.127751726458 0.333904836559 -0.016462554634
-0.305810163302 -0.495721645947 0.106077867346
-0.158834699341 -0.172261655127 0.273963935096
-0.146058259864 -0.171939883211 0.309601334311
-0.376969492681 0.297703974047 0.470885235428
0.316100682590 -0.214692926895 -0.385024916503
0.312515721967 -0.198847074899 -0.356123727465
-0.138631611198 0.370384917280 -0.060994030264
-0.340393352021 -0.511356015150 0.153131693340
-0.375276441019 0.161216752224 0.428313491646
-0.390986238843 0.181810917985 0.421075847268
0.270291729526 0.208592812499 -0.400738522418
-0.111677240295 -0.332497075344 -0.013293455975
-0.372082687248 0.204846137655 0.358105049087
-0.389468752095 0.244759331755 0.372377420778
0.344274820189 -0.248325705835 -0.317111947457
0.326369931132 -0.222061568040 -0.325863765901
0.320024995653 -0.211899964368 -0.329878123196
0.309622661134 -0.199362761030 -0.353537729463
-0.226129412480 -0.493201864745 -0.438441716207
-0.216871570818 -0.494443868863 -0.464792405468
-0.034127971020 0.515251671873 -0.436392066194
-0.293880739520 0.521982210516 -0.176660332542
0.334041281706 0.146964956105 -0.343189737072
0.309908727778 0.177424333852 -0.370987013582
0.325827505296 0.287607515936 -0.348144547468
0.356243959081 -0.173724522939 -0.268943681841
0.356346739238 -0.233021899134 -0.285171045636
0.379811345301 0.452298583388 -0.237982537767
0.349061562156 -0.251250747267 -0.292511913460
0.344818006328 -0.259611001682 -0.295631860775
0.350641852379 -0.184143000219 -0.298769377595
-0.090025528427 0.397183741872 0.004816338261
-0.083985652124 0.376355898388 -0.026302685396
0.358000058037 0.282926526112 -0.257286116005
0.331507008277 0.127399575463 -0.313670000802
-0.303860795884 -0.500768318105 -0.135807908939
0.370588038303 -0.196502010037 -0.178718775628
0.388824236231 -0.229821824351 -0.206669208447
0.380266182154 -0.186542248814 -0.223448127447
0.372837373240 -0.206498885725 -0.226290496997
0.366224399222 -0.197994767453 -0.237005210001
0.364213940509 0.416701083608 -0.263559597628
0.370797262315 0.383339682803 -0.276005760798
0.354640366516 0.166114167067 -0.255120001736
0.367287005528 0.279777677725 -0.201523215327
0.393835833292 0.090098797301 -0.253558805075
0.154235745457 0.255652786036 0.132248094863
0.185439591489 0.238459556824 0.130597113273
0.371765122302 -0.198252249344 -0.144073383882
0.167840431134 0.513845882813 0.024174826869
0.363731116962 -0.183354459605 -0.117349927667
0.377325286960 -0.160808522905 -0.125561884158
-0.343333386007 0.498999501076 -0.369473141746
0.370877253504 -0.095882240447 -0.155187734509
0.365075353925 -0.078859099676 -0.182947104602
-0.146124680197 0.508821208264 -0.269202388603
-0.366921639261 0.120084936019 -0.273107142005
-0.022280487978 0.353753037889 0.031793378548
-0.016045850536 0.341512913333 0.048140559202
0.144367065161 -0.300357660932 0.141097126636
-0.114205532639 0.055056796629 -0.268590985242
0.374734001670 -0.183753447033 -0.165590024554
0.383131845419 -0.187111266853 -0.145385028241
-0.187358710617 -0.499900557786 -0.181883757827
0.381918747876 -0.105305777788 -0.195978885135
0.353948407766 -0.110265364466 -0.194131335682
-0.326913281909 0.488833350608 -0.410670430183
0.200980862142 -0.486764954336 0.130072933008
0.208767656021 -0.478912776078 0.118642168847
-0.356912825330 -0.501142154591 0.379766287252
-0.248330281411 -0.500012124239 0.290530797872
-0.273004052278 -0.511815939346 0.252555798195
-0.166364194318 -0.480188258084 0.204316272887
-0.367518692358 0.391587403999 0.173655551836
-0.385917918721 0.405773187574 0.198410200323
-0.039071383375 0.442024107218 0.144342141136
-0.036139576220 0.453737413536 0.149376497727
0.207202956245 -0.394528111407 -0.024790973051
-0.158255431400 -0.497345651497 -0.225885473833
-0.263224736145 -0.501916764274 0.125765485948
-0.377555084691 -0.021463105440 -0.340695961822
-0.393550063274 -0.011003385605 -0.358600805061
0.382310246640 -0.041248204586 -0.097378240806
-0.382714840144 0.016156571222 -0.436610249043
-0.371060603800 0.019992659781 -0.466740774804
0.208775333274 -0.250798206147 0.131232311284
-0.378581303654 -0.396573850205 -0.103795020637
-0.263732140074 -0.488594104374 0.201704869909
-0.261608297862 -0.505165178315 0.193544022434
-0.036222368891 0.488214249286 0.057282083345
0.191816135791 0.151581107892 -0.005233608867
0.188461308373 0.154477224745 0.028479262978
-0.027930794209 0.349996080961 0.061913984318
-0.363578490056 -0.055796836660 -0.121520266119
-0.107273500402 0.515698848224 0.144776072944
-0.125744472282 0.488187674402 0.157484207691
0.156569946939 0.402951024313 0.036364605685
-0.140174839058 0.122713245929 0.148707370783
-0.215254028600 -0.507676059576 -0.432045379186
-0.233976079611 -0.502675854819 -0.411470331672
0.206196864491 0.182208489632 -0.010605811327
0.188832818752 0.144435998722 0.027034426539
0.196257016642 0.138781499195 0.004522014355
0.232787505710 0.174607088704 -0.014409268220
-0.238078000920 -0.524512075913 0.124324287201
-0.077949380863 -0.489287013273 -0.345577142405
-0.061912235033 -0.496378385117 -0.344207870734
-0.098046517411 0.508055464235 0.066279033646
-0.118640742209 0.508726258793 0.008120924977
-0.130975126986 0.514553714594 0.000213203041
0.188914588942 0.014620938992 0.005833141634
0.177677833208 0.039323621259 0.005414335972
-0.252443958674 -0.510691874349 0.187934394874
-0.370129668458 0.180309466946 -0.223311295927
0.215813377946 0.113432174139 -0.002029444410
0.216117130599 0.140708705967 -0.019272341476
0.242192651590 0.138345215939 -0.046196126937
-0.345056512997 -0.510481772436 0.382069817193
-0.354573988123 -0.488307255366 0.385309756665
0.237695127750 0.104042437379 -0.050656783573
0.271184792071 0.116193540883 -0.057576119512
0.233651662627 0.098828667634 -0.052221110676
0.233105845086 0.014684174174 0.010575926475
0.233789128082 -0.260593067076 -0.043744941892
0.243075954124 -0.263430784286 -0.064387829226
0.244937367896 -0.162649642948 -0.054840024158
0.329875573266 0.500081161252 -0.096655153903
0.028765090190 0.353143951312 0.057598606051
0.040216953732 0.329996216073 0.046579889107
-0.221619041877 -0.521206407162 0.222160836484
-0.177098267482 0.494161503452 -0.405270935589
-0.166739390832 0.507854690205 -0.390661679081
-0.118796168728 0.246632854903 0.154013991775
0.375051909444 0.471221475380 -0.066751438108
-0.150986916243 0.205120462670 0.164741749762
-0.287355807189 -0.515699264679 0.391485253626
-0.267744310085 -0.514503020179 0.389719111382
0.289828590830 0.054252039137 -0.156886784032
0.052971265579 0.344983684057 0.061207279151
0.207232628515 0.405980224074 0.011627953409
0.198138629451 0.412903868770 0.032146723700
0.335035777493 -0.471089613819 -0.261658202784
-0.245282498142 -0.500625997250 0.341264051015
-0.254593880150 -0.499394417980 0.336606731559
0.381706406773 0.260945636127 -0.208340392645
0.266312500667 0.150047315853 -0.173254163015
0.286678804814 0.178604200927 -0.190861450559
0.104054230139 -0.475559205755 -0.350880669145
0.289577190050 0.061908102716 -0.194856451736
0.256052175124 0.062625281239 -0.196578172040
0.292937801670 0.176210364871 -0.210213442503
-0.266250705997 -0.490145130638 0.229561540750
-0.297858216720 -0.500664018629 0.238978375323
0.284087896320 0.158008025062 -0.227710983638
0.293706281825 0.489100529958 -0.193139422172
-0.377463450321 -0.106817487037 -0.151734580655
-0.371930036315 -0.088760871680 -0.175111426705
0.278226151662 0.045561690306 -0.218235787656
0.247514857787 0.182904286603 -0.268971113236
0.259489477677 0.154347450464 -0.262159995099
-0.341526655065 -0.176693127101 -0.472436143339
0.340403590734 -0.472645010458 -0.312743993354
0.328441802813 -0.456217632477 -0.300721701703
0.259082528986 0.130250123578 -0.260307470372
0.350377657904 0.225106944316 -0.265484246603
0.242710172662 0.157669212606 -0.286471556278
-0.201310090623 -0.504012504564 0.355212010150
0.078062999579 0.345569657923 0.062738745110
0.098417133980 0.332465722864 0.038661815549
0.365948510809 0.434046060214 -0.274313849375
0.248709635933 0.169100221918 -0.307816709628
-0.371142419534 0.086695997381 -0.214444860947
-0.404836214165 0.111125373804 -0.214620848833
-0.181757651622 -0.522310965711 0.380073923114
0.367725541809 -0.263552790040 -0.206163930078
-0.371243167871 0.048597942300 -0.153051482291
-0.231537639666 0.330564086155 -0.487237893956
-0.373293245395 -0.039941500551 0.314178812508
-0.382558308004 -0.255370166379 -0.259025418289
-0.222971744212 -0.499916209603 0.250003817707
-0.209646738426 -0.473196516856 0.251479249021
0.209607195308 0.048330820125 -0.325882315621
-0.360733912064 -0.417971946914 -0.475335150031
-0.376181016067 -0.405334986437 -0.484386515826
0.166543300299 0.173416823325 -0.360657730645
-0.384210071452 0.128274385252 -0.191795117407
0.221500461063 -0.381423931622 -0.310041290914
0.210393948405 -0.388804474694 -0.329845939641
-0.379348048275 -0.084281806195 -0.300321551235
-0.375750948811 0.281232739704 -0.201067644560
0.122855879496 0.321814248128 0.033663325674
0.184303838184 0.172022207389 -0.343394430327
0.162632726348 0.162027700996 -0.337325623007
0.169770521041 0.353177693245 -0.457012268835
0.169069085930 0.383928143551 -0.475694884698
0.308163498590 0.266627141977 -0.362656935243
-0.200173805760 -0.500002273135 0.264669555543
0.120357074454 -0.321837452002 0.071768632974
0.126762786754 -0.300550669430 0.048769274725
0.190221434450 0.044309906228 -0.318156595768
-0.064467850437 -0.524982888129 0.264233993924
-0.072084937279 -0.486677145012 0.259160945394
-0.053424066247 -0.489077859260 0.232749489078
0.144407011275 0.131458108820 -0.356073724101
0.139362246204 0.116809180928 -0.364953180110
0.158679202796 -0.299784299137 0.021239004307
-0.367339652781 -0.322682516387 -0.132670094284
-0.087179761144 -0.511634581195 0.182120465427
-0.101821438851 -0.519760359886 0.161092385866
0.172049322569 0.042255042475 -0.366769590565
-0.110526093779 -0.486380173436 0.186114557799
-0.112526763029 -0.513333677544 0.197801802734
-0.095957367910 0.179853993725 0.137598918404
-0.345862506476 -0.495316264849 -0.212941266054
-0.360337685045 -0.494670980849 -0.238146851541
0.085311121755 0.167758085018 -0.365484630022
0.100990971437 0.154994970593 -0.369253635258
0.145952721657 0.085593830144 -0.352561530065
-0.096501176448 -0.494026043754 0.221263174657
-0.155939581511 0.423686959946 -0.184948029825
0.081480826452 0.170440450325 -0.375273433498
0.073237928802 0.202269707870 -0.383403349978
0.177751515694 0.289769036209 0.022160347183
0.262129590362 0.099304865547 -0.091579660176
0.257028514317 0.091057978316 -0.093575889910
-0.134356948986 0.375521998756 -0.082073963484
-0.064670056226 -0.466102729823 0.197089937124
-0.073166880453 -0.502190897782 0.225710999318
0.142102813839 -0.283370571000 -0.379602136846
0.052435728494 0.184458930521 -0.376439523245
0.048202270222 0.176871580500 -0.386696963666
0.076475244324 0.140234676520 -0.375741768182
0.052495761260 0.131429563523 -0.369170925439
-0.386272663510 0.243283241092 -0.020269627474
-0.366453266249 0.200656389722 -0.041539143461
-0.368277776881 0.201162079601 -0.031971953593
0.045504305824 0.082756625326 -0.379282881560
-0.387680706149 0.243176125477 -0.099220102705
-0.388300296536 0.272527614228 -0.082974861458
-0.010404550176 0.139843795885 -0.372604991573
0.004458914465 0.155899534690 -0.368554408865
-0.357356586669 -0.501390037707 -0.448683258425
-0.378626858154 -0.135667868312 -0.213923840374
-0.372895983107 -0.113957594599 -0.182476763999
0.035520642029 0.059301341025 -0.366221981908
0.039667142541 0.061435787291 -0.369026116623
-0.042498230990 0.186391608096 -0.343111498814
0.050912409734 0.073917783451 -0.490191348751
-0.363688719283 0.306524404052 -0.063823863250
-0.087133558690 0.173745788525 -0.347345622315
-0.047430214413 0.177049104644 -0.333915405544
-0.041530015313 0.096027291603 -0.365288549041
0.010392578022 0.078867469359 -0.376045788032
-0.129272604506 -0.507445468474 0.379873470938
-0.085640407210 0.218715545456 -0.316535357364
-0.068416278011 0.190072204388 -0.330002988807
-0.080287430561 -0.514966301978 0.351547964725
-0.095174852868 -0.503879421127 0.353013662736
-0.366874454988 0.480632858544 -0.065509325090
0.042187707474 -0.493647627980 0.275798393835
0.020313320866 -0.505425285990 0.256325736298
-0.108970230308 0.212159498900 -0.310485507772
-0.373906050601 0.294767621040 -0.013608325290
0.005643736824 -0.502873754428 0.339318309265
-0.001197536722 -0.503918075406 0.349357893445
0.275918837607 -0.169690960160 -0.105421485863
0.017551390100 -0.499443738509 0.360153160311
0.012313721526 -0.510146933571 0.355579060449
-0.048315849035 0.046974353360 -0.354323937091
-0.074499916006 -0.232419409354 -0.314583511480
-0.102837588724 -0.247743602059 -0.313213620455
-0.034723884548 -0.475986472710 0.380528158594
0.056606505074 -0.267201207479 0.161295520628
0.059954026537 -0.296528371182 0.154780191065
0.054264712658 -0.275321927042 0.455318364566
-0.375871877635 -0.449064185677 0.123526356091
-0.084821831051 0.053700567520 -0.315946767796
-0.114053078761 0.049041638548 -0.331448378729
-0.113498937887 0.235281432812 -0.310317356965
-0.106733306656 0.210886388976 -0.279865223007
-0.109083233783 0.209093227380 -0.289780660259
-0.114058888661 0.254215985585 -0.303886429990
0.041448477945 0.329937529589 0.134196359814
0.044624344393 -0.208313991092 0.284338492539
0.065174845618 -0.186578050378 0.266138302588
-0.103974429390 0.075490373703 -0.275852614268
-0.379089172601 -0.434757582356 0.289815536169
-0.394022532723 -0.449702280561 0.299531837579
0.139043337116 0.234738474724 -0.466249444194
-0.132727644463 0.196328863010 -0.290896615079
-0.118964941171 0.221304329991 -0.286196290075
0.119383169044 -0.238884826660 -0.463482508901
-0.137537279956 0.253700246145 -0.229193978821
-0.158432289133 0.240306618842 -0.259995285712
-0.354950352698 0.430233039064 0.462068849129
-0.367507704399 0.434340069680 0.458360383764
-0.277311930179 -0.486597014689 0.139397259809
0.285947017532 -0.217018235399 -0.209544269527
-0.152945142283 0.230629796384 -0.209142360845
-0.153583591312 0.222039176568 -0.215505679781
-0.020823253821 -0.197022901476 0.241338855762
-0.066124031877 -0.177639210444 0.254806131178
-0.160327287966 0.114066539738 -0.244194369158
-0.155786666800 0.135210385072 -0.219774762834
-0.158666203995 0.234101158836 -0.182456397442
-0.079351907335 -0.160861601282 0.179758007457
-0.069269214621 -0.215275225877 0.188036053887
-0.366379324911 0.237424821306 0.149935461014
0.360593974276 -0.150305513985 -0.134333650882
0.385429771612 -0.151960842681 -0.185374492288
0.037707487161 0.249521721976 0.141160381558
-0.346071084800 -0.247163066098 0.368369585578
0.381925837408 0.463746730332 -0.205841405543
0.368062767827 0.466532105282 -0.174111330839
-0.133258109353 0.179080462125 -0.193800993233
0.045384233931 -0.334323219341 0.421969070031
-0.386301182536 0.218843601287 0.091432641113
0.179205604434 0.485531257360 -0.352059142279
-0.368470159003 0.338490707203 0.457705210432
-0.364154099891 -0.158207850004 0.454526505470
-0.359473164546 -0.159435189086 0.454904936772
-0.160166588670 0.222500502516 -0.144206450007
-0.071368691558 -0.195615678440 0.168315244522
-0.148985758867 0.246637884841 -0.113998488826
-0.143117432918 0.226811262087 -0.088195860240
-0.148556354407 0.162660827345 -0.104319588256
-0.141862688037 0.185384968364 -0.062171814442
-0.138051595673 0.104576358228 -0.066417665630
-0.134607248474 0.119506727030 -0.089020633333
-0.248943447127 -0.499167822046 0.105397629769
-0.137644125637 0.219864551316 -0.049571054652
-0.111358662535 0.236354031753 -0.025595092633
-0.133985224570 0.190737983118 -0.065572294493
-0.122043648781 0.178512576880 -0.056310505926
-0.124364438419 0.171378241598 -0.050151620682
-0.109942457319 0.156477237562 -0.036951757815
-0.389447427945 -0.382670739639 -0.432295240514
-0.364691867373 -0.392310652552 -0.446972264150
-0.118352637081 0.207238165688 -0.050552151962
-0.064380295918 -0.061927418895 0.158434290219
-0.108804227048 -0.094437428282 0.157360822928
0.300947991573 0.269354293815 0.073281604935
-0.147160293098 0.102613846031 -0.091069176981
-0.139113093184 0.120727460789 -0.094936852808
-0.090384635307 -0.182700963109 0.267644334435
0.025152393475 0.476617708644 0.047902645480
-0.083648059769 0.121825033196 -0.011124394076
-0.083108119864 0.136892834116 -0.004543882835
-0.101545002287 -0.186975826322 0.214148361443
-0.120003292510 0.078167699933 -0.027229694477
-0.080528452888 0.073039430788 -0.012943777604
0.003379632763 -0.403213148772 0.451772840439
-0.063933703561 -0.298270733305 0.030247326056
0.384597510973 0.389019639246 -0.192368719306
0.356219766305 0.376851430972 -0.178998386987
0.281225018590 0.115234736673 -0.127437644457
0.259411561960 0.506906555637 0.107166244894
0.251119086412 0.467549104073 0.083203227824
-0.014193138178 0.052611460457 0.074288257443
-0.031755608159 0.049398801237 0.026100762940
0.102574770992 0.468794449554 -0.384472575306
0.018201840603 0.183047395598 0.060235132262
-0.023542172889 0.210124440504 0.029562671909
-0.014239374131 0.158330675330 0.027322577649
-0.008847630037 0.168986077800 0.055603141924
-0.376819494034 0.438143834188 -0.029331777255
-0.027865677691 -0.272316242357 0.378281834862
-0.042990766826 -0.264503389042 0.368604511635
0.332210090082 0.282171655894 -0.024494971593
0.373100315593 0.386032694916 -0.076748413823
0.348650845300 0.368894550580 -0.071482361306
-0.058071937611 0.003630150610 -0.336374127992
0.000840764803 0.187744705637 0.048193529973
-0.003699328292 0.175118781336 0.050285610468
0.051323990187 0.098632520152 0.068317145328
0.035258850364 0.051229873889 0.056255402341
-0.004838151970 0.064385453663 0.056550675010
-0.184707707492 -0.303125778459 0.390649421439
0.012200038764 0.166722024075 0.065580087716
0.012667421691 0.158676654791 0.061559279436
-0.026175176719 -0.322608701621 0.406704301198
0.314534088080 -0.246338059354 -0.023251838775
0.332737974525 -0.224789030904 -0.007958136059
-0.202966310040 -0.319024472408 0.396167357586
0.071316152441 0.192694531232 0.059971196954
0.354216707856 -0.504972917666 -0.094773470766
0.110812876057 0.150731119166 0.057041820727
-0.190844584122 -0.321773482641 0.410138025168
0.094456089721 0.085411230439 0.046955315436
-0.192999917931 0.503754922412 0.316370610907
-0.202778437425 0.502324928938 0.322158113991
-0.348621050099 -0.032958132248 -0.243655858937
-0.360243822058 -0.022515297537 -0.246482022398
0.095521945851 0.156423977039 0.058380184224
0.140798016456 0.051913919048 0.054853819303
0.126135406486 0.070643411588 0.051289594197
0.110042231680 0.077831116197 0.066347745822
-0.158452844184 -0.116765983464 0.208910667613
-0.166857203257 -0.077779993330 0.214795635151
0.372638695916 -0.224594710587 -0.052631433269
-0.108973085103 -0.331456533847 0.390693655390
-0.104095296041 -0.345131373135 0.402557654140
-0.178976647125 -0.388266329447 0.401108625056
-0.194449848704 -0.363130006030 0.417786362869
-0.158291491637 0.255414099209 0.174633452018
-0.165401550470 0.238509779784 0.164269995962
0.133365585730 -0.162627810099 0.049488519538
0.147857259402 -0.140280671886 0.059032831294
0.278868741584 0.501769042207 -0.097595478451
0.258671273135 -0.247971983086 -0.097998285636
0.359013928068 -0.217056221755 -0.045260914239
0.334131936706 -0.215103077177 -0.050010752213
-0.088856673302 -0.274710541934 0.005084857646
-0.386407470853 -0.186800504729 -0.201367923770
-0.382472819237 -0.153941450836 -0.174425706474
0.254548144768 0.243993551178 -0.075464296715
0.266721347686 0.251927007973 -0.094093593864
-0.155043538723 -0.041161790533 0.257719156669
0.259879410112 0.271083903667 -0.105469632626
-0.006121673822 0.395981072346 0.142696240171
0.294729527283 0.252454574175 -0.132920627229
0.199895372032 0.338527095388 -0.321366714978
-0.350737584504 -0.158167200782 0.464266588017
-0.360060236793 -0.128814084958 0.504781632983
0.250802064780 -0.377600985926 -0.050096790152
0.273771849038 0.270606790848 -0.144647001740
-0.309186582478 0.448465169554 -0.483827015724
-0.288118545806 -0.416178337282 0.237557466745
-0.212166750185 -0.014797812118 0.490163384592
-0.213438490320 -0.014254938853 0.484928183858
-0.371267934723 0.037206149036 0.076998159663
0.223559818295 -0.288465086642 0.104911224396
0.229282051339 0.288693899908 0.117904265298
0.218920850697 0.309249962191 0.125022639918
0.241890756217 0.414448780839 0.106710805198
0.214344669820 0.305991386179 0.100050625926
0.217513539153 0.335150954451 -0.312706320258
0.240878356436 0.321691251376 -0.312516812420
-0.383766138700 -0.472158490057 -0.490613491970
-0.109314372336 -0.402486132019 0.395522593644
-0.181338377648 0.325520885930 0.464211830182
-0.198300689626 0.327666663216 0.472537376403
-0.039747808123 -0.375415490946 0.391167242969
0.006101929690 0.348415842898 0.148040406754
0.020757414612 0.361817992318 0.136413537982
-0.196158497375 0.496398423589 0.477431359713
-0.090185474273 -0.374500254059 0.374029269044
-0.106524348010 -0.377879563782 0.398453228218
-0.209767118169 0.312619995599 0.462878016669
0.051529088772 -0.169281736462 0.219271097954
0.044295539414 -0.181157068779 0.248816175786
-0.374265663853 -0.240448650670 -0.472890523149
0.036821084763 -0.494381064794 0.200556844449
0.058116390492 -0.491481431564 0.175090409053
-0.155444838788 0.205037212399 -0.473520992994
-0.288000567078 0.499815168827 -0.160228140473
-0.290574379656 0.488753870152 -0.194955403807
-0.184202423872 -0.413431518887 0.343935652407
0.275830442268 0.219045372173 0.066810223377
0.256280003505 0.294448930796 0.091753480443
0.257864593551 0.293248467584 0.076928641823
-0.275952278019 0.470423075781 -0.479855780864
-0.244255019676 0.469135260063 -0.477291891354
-0.205950366261 -0.410085730755 0.349274810961
0.267641578868 -0.484892160812 -0.001993435044
-0.379454466642 -0.253405915195 -0.090040833457
-0.390323611027 -0.266308663001 -0.075278492802
-0.368885524383 0.153583928564 0.086773308938
-0.076803304544 0.230399017762 -0.490245837233
-0.087769298115 0.262750892234 -0.460644282338
0.225213427537 0.245273419388 -0.430292389943
-0.408927950765 -0.169710530640 -0.322447783158
-0.351073318826 -0.154126700272 -0.316417445578
-0.398828410818 0.410506965983 0.143067787010
-0.045360646704 -0.055690305989 0.180351214817
-0.038624210727 0.218639799412 0.184893273069
-0.054863465880 0.225293450749 0.137256845114
-0.363075812922 -0.260967701803 -0.135708470183
-0.043364598304 -0.403290507562 0.378573726824
-0.024613994457 -0.442000126873 0.344103977174
0.029987497032 -0.271222496942 -0.476932228092
-0.186945666449 0.505295333345 0.301607343422
-0.028966148600 -0.101307171625 0.157087776986
-0.389974227073 0.072929662646 -0.284206962886
0.242276900708 0.333745766564 -0.415569914815
0.238275638681 0.362938359968 -0.417246051137
-0.384738637815 0.473949481112 -0.215200340887
-0.372808833934 0.235599333971 -0.368510961902
-0.391171813020 0.225439234172 -0.445322839539
-0.375753859839 0.224968980701 -0.461284551624
-0.028262803011 -0.176521092836 0.362886476544
-0.041405828803 -0.184281201899 0.359449764777
0.262076117109 0.280670879279 0.082751021889
0.035930422648 -0.181481189359 0.353758506655
0.060531761971 -0.167508368037 0.319189224055
0.195103098515 0.074481773308 0.143641565547
0.172319597241 0.068103751960 0.127491408710
-0.381489837998 -0.366525326843 -0.249226702984
-0.366736014740 -0.395100877475 -0.243622665846
-0.112526337126 -0.427815580900 0.271553195233
-0.369320696976 -0.486187351104 -0.385445325281
-0.354640973670 -0.486472181159 -0.375862459510
-0.013670057500 -0.410618028925 0.310640605522
0.381787129730 -0.449343277097 -0.077160647180
0.362097545753 -0.448467779640 -0.073805690689
-0.367430422599 0.423013745659 0.056617895854
-0.330101818732 0.237208663099 0.490715728039
-0.080663858407 -0.425537311219 0.311040866424
-0.385589060638 -0.140421743503 -0.416329891586
-0.198473375113 -0.423689951185 0.257924680149
-0.395741873960 0.204280625215 -0.162691753809
-0.361949427036 0.211045336015 -0.155237402681
-0.275225389994 0.134197637800 0.473617801944
0.073043316567 -0.384871943612 0.447281547322
0.047502596247 -0.375868190739 0.427029520196
-0.398434682875 -0.003089439744 0.200829218326
-0.315255896857 -0.441690303726 0.331150666375
-0.143212901446 -0.192264580839 0.257082266482
-0.172499559312 -0.180934260245 0.230215313673
-0.387138190751 -0.360043597983 -0.370460728970
-0.040519036568 -0.392448734662 0.246356851446
-0.011063016206 -0.411277447478 0.257980048911
-0.092968173431 -0.421263317663 0.260344942548
0.067928514304 -0.328650151484 0.190685600082
0.075583726491 -0.342451665592 0.196643301927
-0.006755214192 -0.498782706239 -0.375037813529
-0.163680151730 0.110381053865 0.370354513709
-0.176218970075 0.114748660751 0.354245124260
-0.355228414954 -0.058087037172 0.071228943778
-0.368053709005 0.171504712760 -0.045830923410
-0.378181847888 0.153534371831 -0.032196560238
-0.374867179263 0.467591064832 0.049754476059
-0.165132482554 -0.374946290023 0.221101910857
0.259146243221 0.413002584981 -0.099466911615
-0.074096596711 -0.516061525740 0.334511599092
-0.059933833152 -0.486108384712 0.342725040379
-0.367102432097 0.301233171112 0.165395641427
-0.155916971534 -0.335423557824 0.233945150229
-0.387502556740 -0.237396690015 0.457703377069
-0.171446742003 -0.348382902154 0.229177505507
-0.382774265243 0.487011607275 0.069860749943
0.370052128478 -0.228744490528 -0.182980361383
-0.381499646939 0.323184404646 -0.056551609820
-0.385852359092 0.302220264114 -0.044729672456
-0.393822217314 0.286666659214 0.260258559771
-0.116904019228 -0.286188389069 0.240219170208
-0.175967717373 0.201550278088 0.263195657210
-0.166597936944 0.176996943619 0.275317289711
-0.094220402162 -0.363363448112 0.213342111336
-0.076602033671 -0.359957034585 0.218785292053
-0.160438780621 0.115407197555 0.245284584204
-0.137504922577 0.139007829622 0.218194014847
-0.172281144492 0.149149529821 0.217012616842
0.265496235823 0.374031078942 -0.087131073038
-0.368789542909 0.400722671344 0.086036787375
-0.375017516800 0.344675821751 -0.351789291943
-0.382258606442 0.353871272318 -0.327814850703
-0.136847079139 -0.510915117613 0.047793301462
-0.216558166888 -0.499779637513 0.283667504091
-0.370599905636 0.345152602755 -0.282160533489
-0.365400185119 0.345191860915 -0.278833917403
-0.197538907890 -0.330998769246 0.225120351979
-0.404466584257 -0.014929267692 0.295569873881
-0.375232371657 -0.026517623439 0.276872221738
-0.078281469113 -0.305628006676 0.240672007676
-0.075968244494 -0.326533797122 0.231523884505
-0.387928910758 0.019239040874 0.297884659692
-0.357481071693 0.019793749419 0.312028277868
-0.113064582737 -0.428815451846 0.467324013240
0.369186637342 -0.412017300098 -0.111431660288
0.385262472152 -0.419285802419 -0.106645146887
-0.144556309312 -0.025593165213 0.418795456241
-0.248840441308 -0.487612509808 0.371054700641
-0.250308886137 -0.507268598812 0.374874399219
-0.218192146079 -0.315603113819 0.253712204550
-0.135249438324 -0.495998949547 0.478906613224
-0.130801461885 -0.501481486373 0.438953815777
-0.030600899344 -0.282941525797 0.295742027482
-0.007730729814 -0.272268470019 0.281949699619
-0.138831990264 -0.437508390482 0.473900297629
-0.237341683301 -0.494593536724 0.331143413538
-0.061674286898 -0.254152594995 0.287748315082
-0.069616706073 -0.279053791064 0.271892311806
-0.055248246583 -0.504424025098 0.299171147379
0.029231526503 -0.402654601134 0.460366670610
0.011679431739 -0.411278288997 0.477306144272
-0.374068346217 0.304793917000 0.503825222734
-0.125389344659 -0.280005247351 0.260290625707
-0.075428837282 -0.273955992656 0.253526457232
0.055640006528 -0.452599794265 0.459026878117
-0.206512656297 -0.264968817198 0.258017513071
-0.200845135211 -0.272815696373 0.268126601940
-0.319858384684 -0.289297606671 0.382599364188
-0.194903530907 -0.241942571994 0.313997261167
-0.198318693409 -0.235512106712 0.317885935999
-0.152063772422 0.079929103414 0.432361884794
-0.160817316412 0.093249620484 0.415044906922
-0.392768790177 -0.029724164514 0.448422222691
-0.372684641659 0.450231560634 0.207161834766
-0.378336674099 0.434201083539 0.189316113830
-0.374716142601 0.039648588721 0.407711477178
-0.158573124297 0.463789621027 0.388982242735
-0.037971181980 0.415005863237 0.021032394899
-0.030117546102 0.429023747330 0.039749282580
-0.365031673759 -0.147950020441 0.236155929247
-0.385017548958 -0.202680655793 0.315347294938
-0.369125342712 -0.194353478616 0.328880819096
-0.150224593105 -0.029162875695 0.133196746429
-0.009133242972 -0.197875549305 0.423045422536
-0.371154348616 -0.161697831078 0.309389492246
-0.383727597134 -0.170350350979 0.292436982973
-0.380403716243 -0.112327798448 0.289940663424
-0.119014572133 -0.447116157553 -0.239109804144
-0.383443944647 -0.121900687110 0.331529202974
0.002919662331 -0.198273534828 0.161416029745
0.029997619604 -0.194270030291 0.393549774263
0.047818845540 -0.189651454816 0.423603363622
-0.143167299184 0.028937785692 0.322348141856
-0.160192385629 -0.040798842254 0.204081375361
-0.360793076580 -0.099925194135 0.214827935096
-0.381229806183 -0.136042582646 0.252758030696
-0.113396967386 -0.173426560808 0.457545996848
-0.118016671211 -0.183817022165 0.441585086411
-0.366961803159 -0.088311399147 0.233370834367
-0.330766924239 -0.317966314501 0.474465856520
-0.320071859189 -0.308674708327 0.479735960577
-0.387712162746 0.299431603449 0.171674152511
-0.386662072912 0.325266300945 0.108530069731
-0.172405322214 -0.493844793693 0.460641150754
-0.171393247059 -0.514485707424 0.457145307715
0.047826841176 -0.203572254180 0.426509221915
-0.341877391031 -0.500571685307 0.420775799995
-0.278740754032 -0.502398161940 0.403249069764
-0.155845661765 0.324783693382 0.308506066938
-0.153757146379 0.331195225045 0.457707366628
-0.346455957321 -0.486212594694 0.418340763641
-0.355996614978 -0.477053275204 0.396904753533
-0.393268609064 0.340347362474 0.201766786408
-0.386126467320 0.150064424521 0.375408680724
-0.387064546550 0.177389586476 0.366119204831
-0.171286421914 0.492839264233 0.171220584418
0.208927811435 -0.458720556056 -0.326321157995
0.203078815769 -0.476542593896 -0.326766588133
-0.097103204016 -0.285525587587 0.327564678982
0.316227288990 -0.358899751442 0.025901027899
-0.356240789864 0.460850974958 0.433632039040
-0.386078386998 0.209707170442 0.276472872729
-0.381071400339 0.209059074499 0.258526820271
-0.358752671455 0.354806711007 0.239059103035
-0.362088957956 -0.069664896693 0.247014616888
-0.210445571039 -0.257338288539 0.354844788734
-0.184246445297 -0.275747794644 0.363351922398
-0.149086007889 0.475394255228 -0.130565483510
-0.396572701740 0.457811326961 0.214734546983
-0.362812247661 0.489498290645 0.221087337450
-0.187807172044 0.482721702465 0.392928152113
-0.264590115718 0.520012569909 0.388879014000
-0.289036451230 0.488025795157 0.447579906424
-0.138110552160 -0.095354107637 0.435691778912
-0.146364587035 -0.098757811254 0.444002337560
0.001898250507 0.348591829127 0.147675806932
-0.384610715481 0.325220182937 0.355439719979
-0.144104019847 -0.494764538577 0.093751331365
-0.150509219190 -0.523719523661 0.101605641731
-0.273176593461 0.530492131321 0.355124052995
0.119803803072 -0.383297870832 0.150904523494
0.124788935772 -0.363829169552 0.145346699818
-0.048517870926 0.325734394539 0.136352723175
0.340522115731 -0.271678648683 -0.017282844202
-0.170299736357 0.316407688782 0.440743841657
-0.210206841501 0.499746626653 -0.139101895671
-0.182612419248 0.500124375243 -0.147567334607
-0.370931746258 0.324934646752 0.458775985193
-0.393803741207 0.413186759200 -0.087063564295
-0.373770025269 0.405312205187 -0.085086149452
-0.212423940415 -0.273646492111 0.363920737100
-0.384779274592 -0.441490175137 0.418097895843
-0.383059279193 -0.422931139075 0.399303105567
-0.178491703893 0.299005963221 0.372372727278
-0.155530913955 0.299199843722 0.379254113452
-0.144061958639 0.291887541819 0.403589794386
0.024905043019 -0.077882916764 0.153041791951
-0.366589168493 0.346641708196 -0.251664680553
-0.368523640643 -0.506247001149 0.210658357008
-0.370663755185 -0.509263291666 0.217764302242
-0.148567114277 0.276272174474 0.383578872766
-0.374974976270 0.347396836270 0.354019206122
-0.166362471804 0.292333805328 0.407566259194
0.319046690823 -0.382735517490 -0.326336817526
-0.170652398549 -0.489828318105 0.248412843477
-0.194256536784 -0.480854934539 0.221483753706
-0.174175061089 0.504248997226 0.211914254831
-0.332666799519 -0.498344922965 -0.490106149943
-0.243788708765 -0.485431953282 0.479564113158
-0.332678041630 -0.354660811220 -0.474777951311
-0.352456151888 -0.346429116547 -0.468980197610
-0.367615866318 0.292583042171 0.416009406411
-0.018498331718 0.337001797793 0.053155155177
-0.148835452965 0.209255530109 0.185248720987
-0.152564345901 0.182886461875 0.174716862519
-0.211112317828 -0.503680530626 0.437783302051
-0.025195741028 0.400359532930 0.123363053502
0.020318533831 0.387953148874 0.164435664441
0.340809899041 -0.371366690302 -0.275430295622
0.367622520544 -0.383877381518 -0.287237834514
-0.033241737178 0.474992500800 0.033239804336
-0.394964747611 -0.278941649559 0.190914700219
-0.372574456045 -0.277598747507 0.183072209587
-0.110210336418 -0.495000168073 0.073648829472
-0.356575620444 -0.080392715159 -0.049193475137
-0.375206746725 -0.090268867316 -0.024090161230
0.357652970688 -0.192132729270 -0.108649716305
-0.160031969949 0.043031594176 0.290216642907
-0.170314769620 0.042206123111 0.312347628416
-0.046872503560 -0.492103291509 -0.340456455424
-0.011776853955 -0.502273281752 -0.365252660750
-0.362892443871 0.421824087875 0.465923730057
-0.152857295532 0.080154100382 0.238607316204
-0.172405859026 0.087237440310 0.228894422862
-0.150637907026 0.023073316540 0.249157223716
-0.383378512780 -0.034398822811 0.295661187342
-0.365084773616 -0.034276674973 0.320927257310
-0.152616199369 -0.139921926660 0.409054533858
0.364929315245 -0.451435882606 -0.113109406727
0.381441225146 -0.460946539915 -0.117911111480
-0.149225994676 0.468319530100 0.145671529044
-0.358554772440 -0.337294064121 0.461112763822
-0.363652998803 -0.325440428210 0.470449533645
0.119618893769 -0.212493494042 0.142810261976
0.020241939406 -0.170834030895 0.043126477388
0.023116980724 -0.177499335786 0.046820978698
0.362010890342 -0.154997280151 -0.089092833449
-0.018458168723 0.410148200219 0.151533327385
-0.009932093157 0.419439255397 0.156262094477
-0.029569387753 0.359220182037 0.142734173311
-0.383253822376 0.289780309746 0.424965492550
-0.369330792649 0.306596391356 0.433340582020
0.267354999460 0.342695048249 -0.410907945330
-0.124948196821 0.325690727268 0.147023268412
-0.125384248326 0.301146924736 0.150764643932
-0.391355346984 0.161535923439 0.411641957283
0.358795764372 -0.217916595382 -0.024804508864
0.302020692635 -0.482518951738 0.046751049622
0.297094016483 -0.480699316089 0.046950823435
-0.122576975402 -0.381700993878 -0.450287234282
-0.364429914039 -0.151035369251 -0.106524535843
0.002053412645 -0.164605432861 0.025572368437
-0.160882485025 -0.118049710533 0.384798549009
-0.110326020929 0.505287976221 -0.390579396282
-0.142212797001 0.498149213504 -0.399398295522
-0.133931275622 0.503134457609 -0.380128123725
0.044493795092 0.418172589349 0.163145727780
0.113039543890 -0.400073702773 0.030229538134
0.291672300517 0.218305424902 0.042985022834
0.294791970274 0.233560638302 0.033300608305
-0.095630676005 0.496227499603 -0.413245789473
-0.365858973691 0.070021347872 0.434773982095
0.056231373638 -0.408941334149 -0.474073529095
0.023067174567 -0.419920067756 -0.474071581864
-0.041495585508 -0.487795086493 0.090294816200
-0.026978481359 -0.501221871438 0.087684353234
-0.005505250763 -0.504864893823 0.266118705039
-0.364035837909 0.048831429055 0.428202163871
-0.362487201556 0.064610287257 0.455692491332
-0.137405358251 0.365976632066 0.128649967149
-0.164046439546 0.353458060180 0.144282840337
0.352635430856 0.367755559054 -0.237766432991
-0.243337196537 0.232426731521 -0.486546710062
-0.188796799104 0.223799273698 -0.457989886088
0.251814536994 0.477007446679 -0.063429474173
-0.242944225845 -0.367364040925 0.482114038194
-0.286977000613 -0.366989162397 0.474229873895
-0.369804260605 0.450164070930 0.325659026115
0.255283475547 -0.357924940138 0.082533080413
0.139343640430 -0.362265791707 0.159048041380
0.222616836088 0.476121501623 -0.036933972496
-0.376828227554 -0.106170868534 -0.002994740128
-0.360821545120 -0.117969554381 -0.018194929460
0.064792913026 -0.428076963847 0.214274699234
0.151179731001 0.312141672105 0.152031652655
0.143231930007 0.301052900795 0.127933708305
-0.391803948990 -0.077038717348 0.419718543978
-0.390031754844 -0.064400388315 0.374984342227
-0.268370932569 -0.297105191119 0.465859515531
0.070674512917 -0.431354245392 0.145173497709
0.078334888567 -0.455049242376 0.147333057059
0.217463573571 -0.459702777555 -0.335396601348
-0.249383172912 0.511126535113 -0.057900610421
-0.358538227903 0.241577173513 -0.009061136272
-0.389532920781 0.237458314013 0.029156836587
0.081622568821 0.287446264829 -0.398673246869
-0.371388690195 0.265858699955 0.071048894945
0.220086724931 -0.190930175276 -0.016180665109
0.239029195960 -0.199363371065 -0.004751424569
-0.390113660629 0.301812150074 0.026069799623
-0.360044290238 0.292797455395 0.033240089269
-0.383120286473 0.272897903445 0.007867258304
-0.014964356204 -0.174490445884 0.255051169997
-0.134655884799 0.491040226004 -0.427623427143
-0.132200248860 0.506589110981 -0.429431588577
-0.378500889335 0.421389607775 0.103050841514
-0.183332382884 0.381880075109 0.152756048472
-0.152251009629 0.362013401071 0.189396039813
0.047436302991 -0.294826852344 0.372305757000
-0.084221756771 0.446715400521 0.011787309094
-0.349118554184 0.402207146946 0.385662817764
-0.356888975187 0.423009692085 0.364288671353
-0.135595979067 -0.480979017525 0.114067568287
-0.371294047610 -0.031652484949 0.373794806018
-0.384321995776 -0.077501244443 0.174837628158
-0.387884762615 -0.081600490515 0.177677719746
-0.062891922907 0.487120944091 0.010178103306
0.274495167366 -0.339320802737 0.074134476436
0.270717887506 -0.377267527711 0.053673043788
-0.359677237902 -0.063356362628 0.234295746612
-0.025206075446 0.214416768129 0.023341269337
-0.001696254333 0.221681509871 0.015074363822
0.022765055095 0.309890468433 -0.478364221625
-0.380158207550 0.423691855988 0.216166634170
0.199312741651 0.173354197606 0.129613948935
0.202920829197 0.153809074262 0.123823447160
-0.371842521884 0.282045189415 0.136047609980
-0.372955619243 0.399682890169 0.084934067724
-0.038532166340 0.082828645235 -0.472194481352
-0.032724544798 0.089412002760 -0.484611179397
-0.373451832388 0.380779985069 0.108731117704
0.077736774341 -0.335049051678 -0.459000160246
0.096745651712 0.267095105278 -0.381525721048
0.109918713808 0.316443234330 -0.353314402793
-0.349367262555 -0.494043228416 0.234195156725
-0.382928997177 -0.032962853768 0.168669838682
-0.377651795526 -0.048336054820 0.186993754307
-0.122218626834 0.491907256438 -0.326922866520
-0.368134587078 -0.067608811608 0.141746467163
0.238133213420 0.482492701975 -0.405157143834
0.263363234117 0.465816071170 -0.406482121094
-0.377785318439 -0.165396151706 0.153843684668
-0.390255927246 -0.177335888685 0.143526066462
-0.357726853787 -0.115859549821 0.104029470432
-0.366545846492 -0.110485903310 0.145274555801
-0.165762334383 -0.492937828827 0.224679525016
-0.374324415446 -0.147573220090 0.142469114303
-0.382310112103 -0.131090955623 0.191518031741
-0.126414211774 -0.532255981963 -0.396524136853
-0.175109786553 -0.479618372943 -0.242260952134
-0.193308544802 -0.503471719093 -0.234481052746
-0.374993050488 -0.412061902514 0.023413047616
-0.381834958412 -0.264723036398 0.033214002201
-0.373987891239 -0.259724006141 0.007353882123
-0.129482569076 0.361193376064 0.165995470184
0.202657220353 0.387425467176 0.027144473252
-0.161867059668 -0.465628534227 -0.172169436566
-0.372738446290 -0.255355910075 0.058413800561
-0.158782343084 0.415468534440 -0.115242373704
-0.157872439435 0.370111887454 -0.134462801612
-0.152866983276 -0.046247092434 -0.479785622543
0.303485579473 0.463008817273 -0.374039537641
0.287572012964 0.463892451364 -0.390608816375
-0.030233589277 -0.495453353869 -0.389949671072
-0.142594845330 0.019692724949 -0.478647832636
-0.138340000140 0.010854347129 -0.467206748413
0.266155448853 0.424869530747 -0.157599505205
-0.390419137506 -0.392554278680 -0.367986632315
-0.369190932704 -0.419188266517 -0.354735151116
0.267146831519 0.081455722242 -0.106842640470
-0.350699062833 -0.391918962837 -0.120487566735
-0.380006556668 -0.370899058861 -0.116970330332
-0.376233937123 -0.410755514597 -0.109896066006
-0.159615067463 0.336122718144 0.411433392946
-0.220717862997 -0.093999144441 -0.461321957968
-0.243516512666 -0.093513018590 -0.488969553567
-0.089962245177 -0.365177538072 0.448536757764
0.071888010248 -0.277757629108 0.191961755543
-0.106184591687 0.116375340529 -0.020669712258
-0.112053648747 0.137898538686 -0.038673002027
-0.105466896208 -0.127444483176 -0.013458612103
-0.114182392315 -0.106498944916 -0.051343838175
-0.144383494706 -0.190201409464 -0.196774941016
-0.149984911643 -0.171356426023 -0.191749161798
-0.299450266381 -0.486244438461 -0.274371729425
-0.371136553601 -0.167843455728 -0.378675298499
-0.381036205268 -0.196320438899 -0.406745276200
-0.403432047247 -0.188219819941 -0.422443472556
0.270646339947 0.374904602407 -0.366793418170
0.296453128769 0.328179691926 -0.382933458572
0.228150836560 -0.242553669568 -0.035699917613
-0.366225831331 -0.161527352778 -0.348497281890
-0.356816705078 -0.185311411080 -0.369126009037
