0.091850873849 -0.460974973287 0.094659563219
0.153683952678 -0.476875481895 0.077696208436
0.119635826886 -0.431520475746 0.084549934333
0.093071634156 -0.499029967210 0.017554975974
0.106638401872 -0.448902780804 0.078379465431
-0.220396514304 0.516132903468 0.103487956487
-0.187865933986 0.490236776433 0.070378764759
-0.185422176665 0.513187735905 0.121749329301
-0.219959076024 0.526967869347 0.104357883071
-0.187522935348 0.493455193652 0.115227083214
0.004095420899 -0.061145236061 0.174849486559
-0.010626907439 -0.040164414274 0.187533976831
0.037955000198 -0.028821866657 0.144575206541
0.030806670091 -0.045812338470 0.123024906454
-0.022595827030 0.118185376635 0.041809045160
-0.056016252158 0.080193753214 0.019004384439
-0.096958385218 0.102504514368 -0.038801520772
-0.070265151251 0.104120381763 0.021797792323
0.080489565596 -0.443812260343 0.050811601360
0.103033590102 -0.464739375381 0.073673098214
0.080260077584 -0.451721541279 0.090357384592
0.102655875632 -0.420006985751 0.029494847306
0.036135945634 0.060781180306 0.041768757205
0.064959333602 0.036140371279 0.040204312108
0.085371703392 0.054732558826 0.060470619268
0.109558128849 -0.004193807884 0.035875367150
0.057085545499 0.011183589790 0.043345309996
-0.005133275925 0.060111692683 0.027564113747
-0.013042673287 0.034533332929 0.016315334978
-0.083251406832 -0.124157913113 0.019369031670
-0.027966463700 -0.167744049227 0.001910384969
-0.017256777445 -0.119886297742 0.060612033381
-0.041553277334 -0.078227961791 0.068407084002
-0.029332348593 -0.091834582193 -0.006308491589
0.096427083298 -0.520588537657 0.050574550580
0.080693836442 -0.457833689101 0.041678474720
0.095481403164 -0.483136524601 0.024954884794
0.054373875709 -0.513907721656 0.058535999407
-0.332703210300 0.076863434766 0.154459496155
-0.380899011426 0.096704724222 0.115683337229
-0.413658991642 0.076914541733 0.082059950618
-0.397190852240 0.056837057167 0.086805846006
-0.341867380769 -0.118011535833 0.059584545626
-0.406718968893 -0.119159467333 0.053540115377
-0.322522996862 -0.128355981077 0.051261287667
-0.368499162501 -0.101848028698 0.080288063957
-0.397204956031 -0.082432691911 0.068907749852
-0.415846281599 -0.106447359911 0.014135330612
-0.369509264634 -0.117237936057 0.010177235247
-0.358783174387 -0.024271154539 0.053702353555
-0.355135451420 -0.066655202170 0.012171379961
-0.399719411886 -0.093653467860 0.002446522624
0.275064909675 0.262542085324 -0.219916892929
0.258244543673 0.280257970102 -0.209792415557
0.323425796850 0.294721666091 -0.256998463651
0.233016808658 0.310714362902 -0.271013547866
-0.350929904667 -0.043526127795 0.039952788309
-0.352021274374 -0.053059397022 0.034089136663
-0.410192255689 -0.040895267037 0.093641818463
-0.353153314366 -0.054837134279 0.037340561848
-0.387991823109 -0.045642059419 0.067664658841
-0.372127130386 -0.215996607545 0.029516649598
-0.364534189901 -0.213333688257 -0.000533066747
0.264446796066 -0.297412835361 -0.049343948411
0.220791399602 -0.279797533913 -0.037934895133
0.238183628259 -0.282205563480 0.005708531378
0.224322970451 -0.283145573095 -0.028682077555
-0.382067531114 -0.435238013874 -0.157186707348
-0.362960688183 -0.476639818632 -0.148771174113
-0.343247661920 -0.521888036849 -0.104416115967
-0.357038016954 -0.493840143528 -0.123815878294
-0.186791786459 -0.078784211157 0.201220824881
-0.163340268624 -0.057133709882 0.196980854494
-0.193909844481 -0.079719050034 0.204042120162
-0.359153844261 -0.041600065235 -0.132471062702
-0.378820424003 0.008622988255 -0.138486925476
-0.392689851407 -0.003593044724 -0.146432005175
-0.351706352611 -0.082177860404 -0.145433313363
-0.412040469502 -0.112636047523 -0.116887371360
0.189171660418 -0.324717966570 0.002014100023
0.228161272249 -0.370716482398 -0.006049757871
0.182860723367 -0.334089547336 -0.018599997462
0.236018498705 -0.277058046997 0.028238816640
-0.377543682366 -0.243732613483 -0.184353054393
-0.375632742208 -0.280139551010 -0.169641086430
-0.366448056874 -0.295470760638 -0.155078334123
0.013110952246 -0.123034124589 -0.400150573059
-0.029740312339 -0.149898149492 -0.387397929401
0.025329817811 -0.143025856678 -0.388096349345
0.024367983868 -0.172908878261 -0.371005260828
0.075865206398 -0.326422431671 0.039122154206
0.025639620902 -0.311244450712 0.056123676010
0.016540196879 -0.321052640907 0.044480569244
0.034875895349 -0.315878969683 0.023627939482
0.174348568784 -0.191588371265 0.002884786962
0.229057369686 -0.217498838424 -0.002757184761
0.234944944207 -0.210702041188 0.002152179348
0.145131423634 -0.183078409215 0.076686125870
0.060005406694 0.300551368645 0.058649375998
0.070028993302 0.303487539603 0.061387705026
0.034196842997 0.294501988614 0.074267254036
-0.061804795934 -0.512428281009 -0.013335427002
-0.063433729077 -0.471371445385 0.003016567665
-0.085065308593 -0.486081877327 0.012934386935
-0.112222719260 -0.508076028956 -0.018695210938
-0.118926622320 -0.482915169020 0.025743274781
-0.096306364562 -0.459864548776 -0.043159347104
-0.079310401296 -0.434721013985 0.013169838176
0.141982982294 -0.418809037207 -0.344063121195
0.076547693588 -0.416176942246 -0.370863126988
0.114706638252 -0.369255606179 -0.306916244974
-0.167130391616 -0.078323764350 0.174453493795
-0.122528171338 -0.076369659313 0.172391866410
-0.045372681452 0.094407935987 0.000590744007
-0.097885970900 0.106420777945 0.002009514081
-0.063384877607 0.082939371197 0.040339700230
-0.111649872798 0.096295139036 -0.018467708819
-0.110890257179 0.065280053390 0.007302431953
-0.111432242340 -0.509461309884 -0.031391418439
-0.117922715445 -0.445260296781 -0.049367992961
-0.120737374821 -0.446538717493 -0.060715273774
-0.131708326977 -0.489450646418 -0.090911634325
-0.138593036710 -0.503147377669 -0.033380045948
-0.356906494028 0.024790815906 0.338621520070
-0.370005296306 -0.001663169236 0.365469733420
-0.379102536481 0.003747895211 0.324986522857
0.209577357992 0.239524456402 0.077775466149
0.201464739983 0.216741073865 0.040519378065
0.179744638368 0.296753352582 0.002057528151
0.207569719953 0.291494268061 0.068124419554
0.173608159325 0.252937392405 0.003338598532
0.229237244913 0.292838382000 0.015056799656
0.173862587923 0.289565217962 -0.002131670699
0.158407639085 0.266710398180 -0.000957240469
-0.150224052524 -0.480343958668 -0.078254980483
-0.115956570773 -0.502862069552 -0.028302921592
-0.137007649016 -0.529726234774 -0.119516015178
0.248718187548 -0.282221281441 0.005008666013
0.193574100753 -0.274889782836 -0.002298864029
0.232226676164 -0.261989724651 0.013657588342
0.219772571860 -0.240071609803 -0.002293100973
-0.145530152505 0.066089634740 -0.135201691188
-0.181713661081 0.080427857153 -0.136637214433
-0.162271891902 0.101465396880 -0.105082347033
-0.147320302820 0.119418409052 -0.180667122948
-0.168199340523 0.114483891928 -0.099243610148
-0.193769601731 0.082596346887 -0.115465739430
-0.154385237631 0.073661871298 -0.101252718464
-0.092789998990 0.083440848141 -0.096550460189
-0.147451354421 -0.015055751019 -0.113697228253
-0.138100908519 0.080997283630 -0.084637652875
-0.178560685782 -0.472041505768 -0.140914009747
-0.138213692452 -0.459690004483 -0.085735009628
-0.150186384790 0.091689305172 -0.206875737545
-0.153868851093 0.103568264957 -0.207500540323
-0.204133940412 0.097062195200 -0.248786611504
-0.170932028231 0.114006527833 -0.178720747845
-0.170825192759 0.058027319297 -0.171614522403
-0.143104045708 0.007243911800 -0.177748614079
-0.162506396097 0.041325009554 -0.150843203589
-0.175468778653 0.066635687343 -0.174140456325
-0.149866670933 -0.354531272743 -0.283514620619
-0.170171053906 -0.349856268476 -0.237573528235
-0.152251305189 -0.358142058287 -0.270055644961
-0.157159471100 -0.358633037370 -0.243429005428
-0.138948158923 -0.354995854201 -0.278412402617
-0.170644033937 -0.486304849524 -0.173409268360
-0.109472547845 -0.481183257371 -0.127124024481
-0.149066192586 -0.460565838209 -0.127430696132
-0.160976172751 -0.483672201599 -0.177438194757
-0.211285804263 -0.525443501548 -0.200814476875
-0.245058074805 -0.489081459044 -0.178995201320
-0.046340435166 -0.292863539172 -0.003627047843
-0.018967117634 -0.314918053417 0.018975844692
-0.031209027046 -0.359449409446 0.066998131294
-0.003602983157 -0.337463106473 0.019686586100
-0.063572086357 -0.362315112075 0.032378985730
0.006553760740 -0.077217897965 0.029642138725
0.011996329892 -0.113111429085 0.052670023909
-0.034139344373 -0.242287612450 0.245240886125
0.011997049871 -0.291259735644 0.231269771383
0.001313246251 -0.266897616692 0.264498345175
0.021998178242 -0.268279704351 0.231809350351
0.014187812589 -0.294125348202 0.216550726422
0.271794885787 -0.012511203846 -0.078036754218
0.264762601896 0.024431666165 -0.060267151795
0.276657509772 -0.035695153340 -0.057137715450
0.264178167328 0.010891079851 -0.072412936435
0.058699580786 -0.118549141525 -0.370981981097
0.056535434325 -0.152280309623 -0.385408329130
0.085579710642 -0.149646539475 -0.358975160336
0.071207845934 -0.154871903797 -0.397086321041
0.078554319022 -0.122258311070 -0.388196852064
0.230744458013 0.016312296557 -0.030883474971
0.267639691231 -0.029620338749 0.037400272083
0.233485347058 -0.035643999611 -0.022085607238
0.151409007753 0.019158443936 -0.031571464040
-0.003433161779 -0.224888844035 0.308169066207
0.067293564221 -0.323135987720 0.229795018358
0.000266522750 -0.220878874072 0.274918619998
0.026055175946 -0.292731342016 0.289446801824
0.232070746867 0.193016557815 -0.433064899322
0.194353915476 0.191028837966 -0.495885455671
0.203035890954 0.233680531498 -0.404671892296
0.185810553892 0.206978791664 -0.403813254315
0.151104935729 0.020173916758 0.144169537573
0.195185699559 -0.033999641719 0.111116786482
0.200435278580 -0.040289260640 0.134227555163
0.202156865157 -0.045799834655 0.160412465104
0.158225605627 -0.025021755870 0.063110989910
0.147595290399 -0.009695659353 0.163947297554
0.192613969811 -0.067916236240 0.093035135480
-0.143603612183 -0.453122402410 -0.196254046561
-0.127724560338 -0.472712809340 -0.202987957426
-0.152221417601 -0.498209587219 -0.262813584611
-0.189993481907 -0.476305600679 -0.209275010996
0.372346818249 -0.011955023077 -0.123565487639
0.405788075428 -0.014057570929 -0.146861590382
0.318259849651 -0.041704663232 -0.128156918188
0.344190690821 -0.031218091048 -0.117099666910
-0.185482023534 -0.512418429521 -0.090914116001
-0.167784165552 -0.480474379492 -0.109964791180
-0.208773493956 -0.533463308602 -0.188531218630
-0.133222541524 -0.483692562120 -0.130716572616
-0.167670285742 -0.476663146907 -0.126167783355
0.141638739182 -0.078462837222 -0.481893112978
0.200907305577 -0.073131872763 -0.459941163637
0.175383348965 -0.088084006791 -0.438838124683
0.188052271651 -0.053948016884 -0.502477379377
-0.093790437824 -0.522205632967 -0.318424103397
-0.114454108646 -0.480687774377 -0.259595097677
-0.053386792157 -0.485744662350 -0.331636646534
-0.130584952532 -0.455289125659 -0.281913983826
-0.128086421081 -0.468260716062 -0.288610050492
0.331619813306 0.017509010060 -0.169511403515
0.388448441933 -0.074466741583 -0.146832683275
0.381389108552 0.005411591894 -0.148885564812
-0.141863215198 0.497690239019 0.156958749243
-0.181697604008 0.485278069617 0.195419930916
-0.153224835650 0.448262787527 0.157322465812
0.100925030104 0.434348579594 0.129326336092
0.147799985929 0.436782131165 0.159701816441
0.111058583833 0.423694250534 0.139040758026
0.102101630727 0.433366098291 0.189953712964
0.094294171757 0.445793057152 0.139007378924
-0.353782031261 -0.127986598489 -0.060731832571
-0.394876427131 -0.116554424334 -0.124776681827
-0.395966450345 -0.161380672786 -0.095431852192
-0.372467092912 -0.132889819684 -0.044814903608
-0.346310112812 -0.168270322720 -0.008721772683
-0.350914187700 0.140121838420 0.220534246883
-0.379785895959 0.154311363016 0.192373110186
-0.412090809996 0.156208917548 0.147400248952
-0.347982665957 0.131205091408 0.201180881925
-0.400892623193 0.126292164239 0.193592013857
-0.377851635465 -0.136732026213 -0.051598600964
-0.388949371712 -0.128852334454 -0.051846672194
-0.381199776956 -0.143664041439 -0.073795885596
-0.380680585234 -0.115057476404 -0.047804455742
0.306872020831 0.482811167532 -0.273558655180
0.290697193855 0.473056303700 -0.295314631155
0.276311440472 0.510608747863 -0.298278021431
-0.093519632921 -0.466153028711 -0.315201125474
-0.063802980353 -0.514480738991 -0.318220608527
-0.088009506270 -0.475392454792 -0.337147570501
-0.178944318616 0.410232801353 0.214650164878
-0.170431140950 0.428361009856 0.242727713028
-0.194454380452 0.434462325052 0.189604701326
-0.158860945796 0.432934094321 0.253400741833
-0.157572805260 -0.510431705716 -0.275214341707
-0.158744084316 -0.460639955021 -0.294131462505
-0.158001239767 -0.472693115314 -0.286169633025
-0.216323381036 -0.474859445452 -0.236966549781
-0.028482884504 -0.061731223505 -0.010822357556
0.002922314841 -0.056462777685 0.068560849176
-0.023687890807 -0.028084364090 0.068514819668
-0.040082715018 -0.063079142549 0.079387831098
0.002124523805 -0.475028270934 -0.306367078358
-0.057936205398 -0.446145129225 -0.336152288026
-0.044199887395 -0.498703081516 -0.361986556180
-0.070508021856 -0.457149341139 -0.302151106984
0.329013983881 -0.488828972665 -0.307408283683
0.323249592912 -0.527513358218 -0.308284140701
0.289410693464 -0.513846381625 -0.281506098137
-0.389629831807 -0.461631173140 -0.193819907887
-0.350201426195 -0.453802025261 -0.225433124868
-0.387334907005 -0.492169722316 -0.226846806582
-0.383329389916 -0.486721640564 -0.282094637210
-0.313709760477 0.516285607577 0.033771807751
-0.297589054099 0.456757430198 0.040378896150
-0.319029821327 0.486862435580 0.043056835685
-0.290628991736 0.495239276141 0.044797237778
-0.011760715629 -0.186890001759 0.214285649476
0.047713694745 -0.205404730903 0.156797335020
0.051956293756 -0.217102852468 0.205634853955
0.012345615287 -0.208488247746 0.150474753206
-0.369061046842 -0.476595451411 -0.317481790003
-0.356764253820 -0.493212281931 -0.281295570027
-0.273683178871 -0.494634136226 0.100392138469
-0.318645737547 -0.477697301098 0.080154318401
-0.307815303303 -0.493229994279 0.100499526202
-0.255355528616 -0.512277153345 0.074912070663
0.312100417640 -0.491630392499 -0.029043060141
0.293205051940 -0.464725016359 -0.050926996248
0.333761632505 -0.493755634492 -0.068085630256
-0.156117292450 -0.487473852152 0.005985488110
-0.144421773747 -0.512097892677 -0.007766686266
-0.128329435933 -0.517020563901 -0.005800630433
-0.161340418149 -0.503444309185 0.016028066760
0.291045577595 0.470750936851 -0.243201548486
0.279083117676 0.523622420607 -0.276659370703
0.153212171494 0.199841203700 0.161095147714
0.110736510868 0.230444799545 0.152669808689
0.132525222403 0.208079744168 0.149678502679
0.029498025225 -0.035516506200 0.163594086507
0.035151579373 -0.047430506367 0.165129453575
0.063649030329 -0.078382791932 0.172554496424
0.065433852698 -0.062983515423 0.171769326875
0.044924840781 -0.501505514724 -0.370961963579
0.059260513057 -0.472541725708 -0.413710098225
0.030337274376 -0.479882117859 -0.369514763219
0.024559278826 -0.438307233367 -0.410123799345
0.049604529504 -0.463289094264 -0.350088985805
0.107533409889 0.025062529983 0.175096084051
0.086379351539 0.025265510600 0.172917267445
0.123402322741 0.041923959473 0.160248351084
0.318145018718 -0.488846316875 -0.037139022808
0.356359244258 -0.512100479785 -0.086748843227
0.359112553783 -0.507936567805 -0.020270249810
0.345774609782 -0.500615360101 -0.023779594686
0.185739000403 0.226551198869 -0.479552104687
0.229523624196 0.231153297607 -0.476430707360
0.214369341244 0.194533510154 -0.445538207149
0.212067008384 0.209524686012 -0.395702301592
-0.002618051722 -0.428386280570 -0.390739845533
0.004314501007 -0.406045107912 -0.400609957798
0.032757784570 -0.440354160717 -0.374071048968
0.265586014852 -0.084281351436 0.117013058074
0.262296162182 -0.066879165253 0.070371138706
0.239978341875 -0.057481621617 0.122488966650
0.256977738747 -0.059144063672 0.074578067562
-0.359838099969 -0.037078206424 -0.052722965074
-0.373443270512 -0.041770379270 -0.079959756102
-0.394654595424 -0.078502419041 -0.037515264852
-0.359622520226 0.003000771392 -0.013586949657
-0.338992061547 -0.091393168896 -0.005882283433
-0.350885522451 -0.048560956819 -0.027959997633
-0.374719472655 -0.038026131497 -0.053359946065
-0.356109519448 -0.045658686021 -0.036702494573
-0.342700038056 -0.007584116179 -0.019782196367
0.143337857253 -0.507025318800 -0.379039692704
0.153331038525 -0.479494593758 -0.373724142268
0.119282668431 -0.459022249429 -0.395901718172
0.106978742381 -0.481470470571 -0.380907143621
0.141141481787 -0.451813450985 -0.373051118681
-0.390268985894 -0.020999826075 0.008430589599
-0.391666858926 -0.014184817091 -0.014639819024
-0.395796310042 -0.031147464311 -0.008677075660
0.286108416657 0.481933309366 -0.328218068051
0.319805822566 0.509676896989 -0.314827183322
0.278121950015 0.499972021509 -0.318171102895
0.222112834433 0.512585498523 -0.307544919816
-0.208698342672 -0.511333689915 -0.003520404374
-0.176236666492 -0.538702123335 -0.007736449226
-0.153336016977 -0.540032301874 -0.017132539621
-0.139540966287 -0.512709622938 -0.011949091186
0.142236104065 -0.473661377519 -0.347975436744
0.199115268298 -0.494899355965 -0.360894393932
0.186362886728 -0.502457326777 -0.328625008564
0.200016013044 -0.467652150029 -0.356772620964
-0.212450727605 -0.513445977248 -0.030472453756
-0.245114048643 -0.546889579985 -0.023053408018
-0.246872986972 -0.498987100739 0.002879610000
-0.221003420280 -0.507587042039 -0.004678531473
-0.201978069619 -0.518980937324 -0.069775684872
-0.275207972695 -0.538092750878 -0.085502801539
-0.243054702536 -0.481897629287 -0.065474007684
-0.193238739209 -0.497623354424 -0.061393098140
0.363250486296 -0.409866537804 -0.173064740717
0.391029159335 -0.470327094303 -0.196735068261
0.391236458261 -0.501434524498 -0.147379208183
0.170964514783 -0.484959627181 -0.366289666259
0.160564807024 -0.473462629094 -0.335148047685
0.160448216460 -0.468007288331 -0.381584659899
-0.227944728902 -0.481465428162 0.002523231385
-0.240750784896 -0.485392395899 -0.035397860377
-0.303485018382 -0.471278980848 -0.012505950721
-0.255679357221 -0.489871652464 -0.050580932189
-0.272945947184 -0.481754477632 -0.036213130197
-0.270408722728 -0.532318393582 -0.070234516975
-0.260641247137 -0.443254648863 -0.072625610646
-0.259238368654 -0.532064185867 -0.080576820773
-0.338331398287 -0.132877545465 -0.048096684339
-0.343896039747 -0.156277797731 -0.063772665145
-0.364656567448 -0.141044339708 -0.075463118646
-0.357955504329 -0.166608832140 -0.092671029499
0.194078379177 -0.438621712070 -0.347376616762
0.159083042600 -0.453025634197 -0.346675500861
0.207487272066 -0.468448179670 -0.323209559962
0.194708972274 -0.478813094582 -0.356813623949
-0.340519713818 -0.342414510054 0.395750097119
-0.327690645446 -0.350983031678 0.394065554939
-0.371696926911 -0.337730590191 0.419331951767
-0.331251308922 -0.126787527135 -0.110698375715
-0.354234886925 -0.060396588871 -0.094849786847
-0.339932522059 -0.070485699896 -0.100747280864
-0.358785069890 -0.141901700522 -0.111430457976
0.043073891246 -0.094685954502 0.057989298046
0.000460234136 -0.078813758504 0.020920941814
0.025923107901 -0.134519101499 0.037626366037
0.003201495700 -0.145517141459 0.063550260372
-0.016857345693 -0.105190683655 0.060523058294
0.216979448743 -0.486368098994 -0.306846152983
0.192454878442 -0.493308488988 -0.367130239051
0.198798458149 -0.487028179506 -0.297350321383
0.065473153999 -0.046204848359 0.068727703204
0.065861483267 -0.052570840309 0.048471731224
0.029164154259 -0.027163597633 0.074463372183
0.057323687507 -0.020381287230 0.039890418148
0.065962887996 0.003326678961 0.070815252738
-0.163881994123 0.487735255063 -0.178814272398
-0.170919494823 0.483059660424 -0.176888525869
-0.133788447632 0.527157916354 -0.177670451957
-0.122629036799 0.481591881972 -0.116796377238
-0.155108997323 0.515197516536 -0.123554591002
-0.151025312843 0.474536552882 -0.101371040103
-0.127884739403 0.479826749983 -0.112954774120
0.232734180500 -0.501047818728 -0.271397572106
0.246189293019 -0.497098203753 -0.237398938356
0.203359759929 -0.432759354900 -0.270039328580
-0.149760720826 -0.154010119973 0.191924915215
-0.142438939647 -0.165125086551 0.223005942111
-0.155890535491 -0.168630245216 0.179471456863
-0.133784622743 -0.184277610030 0.215889584640
-0.153763780479 0.534385677881 -0.197271178426
-0.179258746146 0.535440528177 -0.196944123775
-0.202237556577 0.510052170552 -0.210703475935
-0.183149746304 0.569927046441 -0.215778442514
-0.411879224757 0.111044520705 -0.046947562095
-0.376307271059 0.125022195476 0.016961295474
-0.378527799703 0.149246892170 0.014454319548
0.041755594954 0.284367968762 0.058571188216
0.034670328592 0.306008843022 0.061853979288
0.034901922611 0.311840450289 0.006216953013
-0.000799648937 0.311848807011 0.047246850543
0.274892416197 0.520157864976 0.034654565916
0.280185747640 0.478998800428 0.047137430260
0.253243098528 0.469643177852 0.011735774803
0.310185580256 0.506397038361 0.016324401092
-0.161560608791 0.478232659637 -0.016721623426
-0.111480040618 0.492652749246 -0.030578054937
-0.147695313153 0.490023532865 0.006677433833
-0.181694601887 0.470899300133 -0.031020105618
-0.114250693218 0.478757180987 -0.035772875946
0.373273475002 0.490363674496 -0.162764425714
0.268194707057 0.535348128071 -0.163226148465
0.315276046302 0.516899857961 -0.212279600466
0.295472734337 0.460916222440 -0.163691862869
0.297795415660 -0.498357666282 -0.252959257752
0.262401174802 -0.460825415046 -0.213045721934
0.275227083196 -0.477308515219 -0.240241330569
0.269308324634 -0.487300425434 -0.217478912762
0.274531686028 -0.485724714922 -0.224275525344
-0.177023314174 0.222773989900 -0.443472036571
-0.231947693611 0.190180475884 -0.485644716627
-0.233524389946 0.230257396637 -0.537854328478
-0.368089069513 -0.450384659981 -0.170574398653
-0.349485680524 -0.437214704281 -0.195435043521
0.172901013992 0.242894863595 0.150489612054
0.152468535611 0.245029980575 0.116248741502
0.116998965893 0.230676931972 0.130682642292
0.119618826030 0.215981564423 0.178901556794
0.286897374750 -0.433071478200 -0.133063792803
0.268891011555 -0.462014932972 -0.187099533200
0.267934259431 -0.476495387246 -0.155984052785
0.268513147270 -0.436417449555 -0.168802088292
0.278296565347 -0.515601164354 -0.220890785197
0.288427193074 -0.493046951049 -0.169536788921
0.082327389520 -0.520843274285 0.061896161483
0.104564380889 -0.501557412363 0.089548908972
0.064283669987 -0.502927592309 0.080324716015
0.083756973444 -0.501509541370 0.066720014496
0.098943970214 0.074589211969 0.138754202366
0.057944841163 0.024413112187 0.134289041812
0.098156516824 0.023099969957 0.149573481115
0.092609380610 0.051369810130 0.137683608488
0.099243065396 0.044224047335 0.144767869301
0.127786862052 0.017112115769 0.136157398250
0.150577304037 0.040977527033 0.140279227558
-0.119591755603 0.474212358571 0.504382619593
-0.149702639702 0.443231654161 0.438609484315
0.103553527099 0.013882160371 0.147129766936
0.065564290658 0.043711429216 0.126162321100
-0.389015483022 0.495984436200 0.237377481165
-0.371948724879 0.487928664754 0.211575015100
-0.379381529592 0.494906027761 0.229890007556
0.074573002283 0.091585782080 0.136888137731
0.118529904888 0.085702984088 0.123706051555
0.085158351575 0.109115427488 0.134363442913
0.068935100120 0.112082076293 0.135284196998
0.295976663221 -0.489953691290 -0.093135981534
0.291700890038 -0.448537508133 -0.090522808878
0.266447082196 -0.479796743097 -0.097494525734
0.232858781436 -0.508054259579 -0.095831014652
-0.351998684434 0.510917151295 0.081607462917
-0.325948732507 0.436307835935 0.060706415535
-0.345824388534 0.485812701901 0.082593914725
-0.383667454144 0.460413525755 0.091439321112
0.310501149648 0.223099030299 0.053709790743
0.298842995546 0.180814439640 -0.003376835742
0.303269747925 0.219171584420 0.018380986290
0.252568992666 0.191467982711 0.095452473657
0.160654971158 0.351300356888 0.169514355616
0.121846802921 0.435504330653 0.146474777703
0.122917458710 0.354512743878 0.117812132605
0.235997430494 -0.417263039695 -0.020987014487
0.204544986138 -0.445325330314 -0.040564678419
0.262714823262 -0.421602072881 -0.109208056832
0.218629541886 -0.470200786375 -0.058146786519
0.219719665454 -0.259153364985 0.093616039974
0.226989855117 -0.252482651018 0.098020969204
0.207620078349 -0.328547649174 0.114275571561
0.215986386934 -0.318037739542 0.114380546396
-0.400293684204 0.184003654991 -0.104188128341
-0.398918413715 0.230280761515 -0.159393600532
-0.391197471458 0.211295696459 -0.126959769670
-0.416345300912 0.204632269189 -0.145239179562
0.180243620083 -0.134105297320 0.108704363241
0.188490521737 -0.037641785330 0.109888113752
0.165497798554 -0.060258487585 0.112129039319
0.241056904799 -0.443956344199 -0.000996989697
0.238656840433 -0.496112588521 0.003596150853
0.188437628695 -0.475533632815 0.013770488715
0.233908354348 -0.461784780888 0.020099121381
0.059300625417 -0.501710659363 0.090059405354
0.068412111928 -0.505088244103 0.067279832887
0.070587423014 -0.520183166594 0.044999190286
0.052541529387 -0.514797224338 0.138050564411
0.050213611479 -0.506897762406 0.069531095791
-0.111798341658 0.496696623150 -0.349182391464
-0.086037742488 0.486126553489 -0.348661952049
-0.157141189287 0.497138652498 -0.332563140460
-0.156958390144 0.513209872667 -0.313323345356
-0.137962262803 0.504029246926 -0.348346294269
-0.086132019227 0.494960504511 -0.299939262306
-0.156992723537 0.539881178899 -0.359643499968
-0.125747719548 0.510045540132 -0.331260889522
0.059661610963 -0.039272745498 0.044666779644
0.033436486395 -0.031417490271 0.051581073490
0.077722111791 0.028554449654 0.047834979514
0.056612607505 -0.048373760168 0.071605895651
0.194077826371 -0.208927365634 0.167313452032
0.151565891567 -0.184763576048 0.109592475961
0.124357865878 -0.181396123750 0.152537896393
0.178356495570 -0.162855664239 0.130213039682
0.181802227645 -0.387706475857 0.069444868438
0.248392982210 -0.399742447615 0.086210255571
0.279758702955 -0.402056645174 0.119876042601
0.277392623877 -0.425686970372 0.069482706843
0.249911747906 -0.384171844361 0.114996256574
0.251023125072 -0.372957748240 0.086083982010
-0.160095244524 -0.533114413232 -0.150059925750
-0.118221027173 -0.516337452457 -0.129633874913
-0.157028553193 -0.512380063611 -0.111903615099
-0.167985879863 -0.505721390330 -0.149309918085
0.202010345565 0.250729120416 0.172201802694
0.176074385794 0.229879739188 0.105641687316
0.192422389324 0.215556083172 0.130444503941
0.191114217213 0.250515923471 0.128298893903
0.246805674429 0.015265766803 -0.464193203323
0.191407559379 0.056164394194 -0.405278426724
0.215202507611 0.029532246461 -0.429929147269
0.275619630833 -0.291825925636 0.022004648750
0.269320310549 -0.289188799435 0.040228787354
0.327041659854 -0.260220667129 0.052642523748
0.311921681219 -0.268443174885 0.031098612219
-0.128245038606 0.489932748945 -0.323694816359
-0.148316661376 0.504680087583 -0.359968711610
-0.074177919699 0.492587378062 -0.344705908956
-0.337055035210 -0.476903062355 -0.105564217259
-0.315720631537 -0.467660429359 -0.097385888948
-0.343121879404 -0.489826799924 -0.134870923091
-0.296675075824 -0.476476073060 -0.133122584058
-0.080670416713 0.476597442379 -0.307694708644
-0.092562527117 0.514474115606 -0.318943322033
-0.115879437059 0.520427205313 -0.352867321764
-0.113014902266 0.471163306741 -0.306174577918
-0.222912998845 0.511781433341 -0.448224472439
-0.282275151615 0.496772982644 -0.482412912272
-0.234651983937 0.522096066521 -0.454866240503
-0.413640165372 -0.010744346031 0.334945452739
-0.376497658052 0.051645469127 0.289417990732
-0.186063508184 0.298007490563 0.470999183400
-0.218082859178 0.294127860872 0.456829434861
-0.161314281263 0.296346705187 0.462621559093
-0.201801750572 0.333542084428 0.493666846169
-0.162562787491 -0.490013374570 -0.288195640991
-0.162248001790 -0.531189994068 -0.301413832137
-0.210059476892 -0.504300630299 -0.274686599238
-0.101930771231 -0.502005381874 -0.320363764937
0.279107637186 0.285606860867 0.066708033924
0.278861308023 0.256890288534 0.068907031841
0.254382549181 0.294234219181 0.027090183851
0.233005873678 0.257491946877 0.055175856460
0.038620407728 -0.094948080501 0.094548884662
0.067985512126 -0.099192269900 0.115561827910
0.112449939143 -0.129158882549 0.014066680214
0.023749895126 -0.119999087432 0.044691991645
0.221731226784 -0.522764350844 -0.417004137626
0.149986973864 -0.509781314229 -0.396588135333
0.180340662756 -0.477147484606 -0.361581012292
0.148658128060 -0.484335558294 -0.350741902027
-0.190902056346 0.479726953332 -0.341419505081
-0.184378350790 0.495711383996 -0.333443771484
-0.180570093601 0.503254911372 -0.331066989380
-0.236285766848 0.526824149797 -0.317730012710
-0.237503741518 0.510576611138 -0.346899749408
-0.244495531179 0.534672465245 -0.336083777662
-0.240534179252 0.475526720293 -0.317344946773
-0.246744505210 0.494380532997 -0.230282932311
0.106944467026 -0.465698403004 -0.474169200696
0.075613657825 -0.453883228678 -0.518167497250
-0.299372537697 0.464226124581 -0.340036763971
-0.314265623886 0.517153465807 -0.346829971076
-0.284057884641 0.477874091142 -0.336577018425
-0.244163579998 0.511321326523 -0.307468728959
0.149403932200 -0.011276200856 0.063219764280
-0.002445321117 -0.090779051064 0.031680007515
0.057601142524 -0.040669554977 0.027059279040
0.053205794863 -0.002780234167 0.033502648394
0.212597506037 -0.529357707569 -0.313246647750
0.247047963519 -0.510257854734 -0.379609590700
0.238113969219 -0.505613806623 -0.342061486351
0.196841188107 0.121206819166 -0.441154516148
0.180464898812 0.099543117804 -0.432476417070
0.168803991493 0.118883501195 -0.434243271756
0.159059293219 -0.395093666780 -0.354761828337
0.168923971466 -0.395952674999 -0.378876705835
0.137433433600 -0.412481196081 -0.352781889390
0.137832195027 -0.386212534849 -0.345440351478
-0.145608454678 0.293954162558 -0.482329604576
-0.086329365241 0.265278585099 -0.476375896201
-0.090100839005 0.237823951150 -0.485136821594
-0.090255485066 0.260603808572 -0.494276960669
-0.105297827167 0.273336530037 -0.503468514407
0.098366156519 -0.310292395524 0.063813726246
0.072932330342 -0.334490685320 0.052488538283
0.130929632752 -0.321406875224 0.041805173235
-0.379335636913 -0.445863828526 -0.008712690848
-0.401258999193 -0.448242057225 -0.013458945955
0.341908983694 -0.545167898816 -0.076539682737
0.368894267851 -0.484813058159 -0.134439690933
0.341177949720 -0.462001558556 -0.070077483717
0.341756977503 -0.501618893889 -0.121919264713
0.324674664791 -0.494607109151 -0.057594149099
0.250308380477 -0.253658706408 -0.244980943401
0.205063799332 -0.278043191014 -0.337768910692
0.277959950419 -0.314261628740 -0.262934848227
-0.311056580509 0.506892851269 -0.490790684928
-0.309740036601 0.453661648233 -0.484722895008
-0.359421794587 0.467139637348 -0.513199755097
-0.313508065350 0.497514486049 -0.505560944427
-0.380332157050 -0.488588951379 0.136351423355
-0.360351413165 -0.500255688832 0.123212353486
-0.356818183092 -0.511779059288 0.088450375395
-0.302162407221 -0.519959651675 0.140143858825
-0.155086521715 0.025166763212 -0.213258173916
-0.168295550404 0.029396404322 -0.197548302233
-0.193900819723 -0.009038868693 -0.219080146533
-0.148506817921 0.007555376895 -0.198770553797
-0.365715420722 -0.465647337814 -0.224754528822
-0.347736733416 -0.537977441509 -0.170241067078
-0.380422820837 -0.495896263943 -0.187569779323
-0.208855181447 0.519801171207 0.109438913691
-0.247943389609 0.452083845377 0.109589726610
-0.258204156800 0.487950010275 0.115015345412
-0.242291121640 0.481518120813 0.102841022107
0.364973803486 0.231113120827 -0.207337249094
0.385805826614 0.209102869752 -0.245679141115
0.421942723310 0.189262178840 -0.255575588476
0.412844551208 0.206322053470 -0.234326370318
-0.372001204608 0.323061403406 -0.225741370834
-0.312515520675 0.246950809010 -0.181448303361
-0.356597665297 0.233413916585 -0.193975162188
-0.368369303251 0.240241173722 -0.196649755388
0.390405743017 0.243006702317 -0.017431890086
0.339659001023 0.293821987311 -0.037538807171
0.354924684394 0.319624436878 -0.071310949823
0.358716852979 0.275757406523 -0.034271440861
-0.370096882837 -0.502327364898 -0.484317086156
-0.376277299551 -0.501351531925 -0.472680194026
-0.375099348336 -0.496249601585 -0.422932569456
0.126015776683 -0.052462640394 0.075577870668
0.069992799621 -0.014418268185 0.032378665637
0.087728698039 -0.004277325754 0.041361307240
0.104214722672 0.001357259395 0.060573157593
0.125905704690 -0.042998881683 0.042284870056
0.398655797502 0.286716862353 -0.094520839431
0.349455532102 0.240922917429 -0.102716437191
0.310573869218 0.227665399593 -0.147835097617
0.357824144835 0.258738451465 -0.088025518610
0.115482546660 -0.081342974153 0.011331530421
0.084900718384 -0.078041822635 0.052989444946
0.059500600162 -0.079023480875 0.038000210961
-0.306769965393 0.253962379550 -0.437246868706
-0.328559086849 0.254958243037 -0.498202401253
-0.300642335245 0.294521547749 -0.486628223058
-0.361704226879 0.253283836078 -0.457598561338
0.014268454409 -0.186557258167 0.459536357587
-0.010075065875 -0.184011728072 0.474083469740
0.002425644538 -0.186488765772 0.471791105327
0.030614205847 -0.191610273493 0.506297983401
0.080670575450 -0.253837468493 0.351597520212
0.101372843992 -0.274277135263 0.364244206228
0.090922922805 -0.205867538728 0.400498086360
0.055448006704 -0.237505417976 0.364053599361
0.053261067042 -0.247236341005 0.362357611772
0.094833697517 -0.279013579067 0.373835776773
-0.394412042650 -0.232775067855 -0.329567798002
-0.372256636283 -0.218338486655 -0.290401253347
-0.350750442002 -0.186299747365 -0.342860563587
-0.364729997459 -0.143601276608 -0.365239106832
0.330439453964 0.132891720768 -0.327202344314
0.305733967571 0.060852183561 -0.320503598153
0.300472828398 0.097623164483 -0.388341821025
0.384695450993 0.121638479148 -0.335338420412
0.264299373859 0.205139481818 0.058334570079
0.187343430403 0.172844792995 0.111634246725
0.214114171856 0.143231333478 0.102096107990
0.211563450262 0.170436978291 0.084388777130
0.112057508564 -0.285765827379 0.026709688478
0.107690191609 -0.345887818793 0.068548523480
0.107961267021 -0.270228797346 0.036478067382
0.166329991491 -0.290837317118 0.071916611888
-0.344380648314 0.522250043036 -0.470062257815
-0.298327667290 0.492243665922 -0.480246479417
0.126772234796 -0.549925274222 0.102834805431
0.123755852011 -0.505528884546 0.091837737778
0.095821693397 -0.501569302167 0.071171742743
0.101889314891 -0.517244432312 0.059728014223
0.100569422538 -0.495305042857 0.109902177663
0.071373057268 -0.506439236136 0.098464462552
0.122057077591 -0.517124126262 0.038776067503
0.070002931048 -0.471312937466 0.072618498516
0.093334246738 -0.485655792520 0.059286280183
0.151284377147 -0.477284986736 0.055366066214
0.129138881122 -0.524834438737 0.077514530244
-0.387628922680 -0.232216742362 -0.377058384604
-0.387672485001 -0.200236372905 -0.446318298747
-0.379909179735 -0.225207871807 -0.405716013383
-0.411299964883 -0.251686314397 -0.439346207297
0.036722009777 0.299868138759 0.030072362578
0.081980929266 0.321314805583 0.034526489085
0.014164287802 0.324160560082 0.082254845262
0.367785711396 -0.299206703562 -0.119606575185
0.339649318160 -0.368965430393 -0.103924941103
0.380591569120 -0.323458268917 -0.132526023629
0.402360962834 -0.272768434529 -0.116789821783
0.382843528531 -0.362562698549 -0.150025151734
0.388657204340 -0.385911201766 -0.166844607690
0.335526366214 -0.437401566941 -0.224599089993
0.367003636295 -0.404080681099 -0.235454736482
0.374669073090 0.274446013327 -0.183001444598
0.371237689678 0.258802285697 -0.174868433239
0.354416468942 0.258207008057 -0.182535323564
0.394036498868 0.249441546243 -0.155473655836
0.396968273538 0.249761467203 -0.155014710238
-0.355763624054 -0.265532804478 -0.400387719656
-0.388301604377 -0.208193528886 -0.393694218738
-0.359327297877 -0.170962628341 -0.397864543030
0.187345277124 -0.050015377848 -0.003856696970
0.164082594155 -0.100307700774 0.007712948861
0.192466327473 -0.104006021397 0.015464236203
0.154890097676 -0.138569026856 0.063961151174
0.121780812152 -0.147533221715 0.025636576388
-0.404238040636 -0.162139873517 -0.215479455029
-0.401733280417 -0.201925495395 -0.214650793502
-0.360325052955 -0.188832025834 -0.205586889853
-0.361773953718 -0.164866044254 -0.223364975697
0.360102275284 -0.407674623272 -0.249369587717
0.394954743942 -0.405210417611 -0.171218823701
0.348934690469 -0.382100640912 -0.226543211689
0.358241945145 -0.389271669732 -0.266963532384
0.347243401902 -0.384352139867 -0.299013320496
-0.321252918252 0.510828221590 0.031293601440
-0.304687204007 0.508357047964 0.015923381996
0.264023624708 0.204218240018 0.009834594766
0.236974474347 0.180970854275 0.032964370755
0.306908464440 0.249201206735 0.062190477078
-0.373173735324 -0.338670379533 -0.283853749254
-0.354878951648 -0.338384785898 -0.222221319040
-0.355251054946 -0.285095466756 -0.254090356514
-0.366401299085 -0.313601935552 -0.302925002298
0.380184986801 0.307502413633 -0.189609102984
0.392294546957 0.274017765225 -0.141357914807
0.385509381296 0.321384351365 -0.145188765885
0.370489687363 0.299714643328 -0.175314683638
0.436553177734 0.345906845355 -0.179404705379
0.352252177903 -0.408759110326 -0.321866900392
0.350086336340 -0.334826863426 -0.272052973456
0.322321755020 -0.350566220560 -0.277737442325
0.002781011460 0.344979971465 -0.383727475498
0.005448184857 0.419071990982 -0.381131738341
-0.018856647387 0.338134714192 -0.388778069924
-0.393982540010 -0.140881480048 -0.287932276132
-0.404457772822 -0.168226857443 -0.307995065666
-0.392890292232 -0.132974751473 -0.286695229354
-0.377378222067 -0.146974130964 -0.302999167021
-0.347883918551 -0.171735674426 -0.305674206954
0.194870084708 -0.087382161235 0.058422552406
0.194675844492 -0.067240917737 0.017629736226
0.233708344847 -0.083765382514 0.026731319660
0.330501741393 -0.423791215928 -0.293903779323
0.370213554911 -0.432343878086 -0.317876327541
0.386954010266 0.263070757430 -0.269930281532
0.356943250752 0.245150098504 -0.264841512766
0.370800265682 0.264383313267 -0.226273893732
0.374636361798 0.242067585037 -0.236805777018
0.362620834338 -0.299182821398 -0.044836080282
0.347571592998 -0.275477710250 0.014393000463
0.346323697899 -0.359559882558 -0.044318283375
0.318497259307 -0.291998871174 -0.015480682154
-0.296330852266 -0.015389255414 -0.483988054981
-0.270905392069 0.046694732299 -0.513786390145
0.374168272357 0.410345882446 -0.237347037679
0.371551232886 0.379217439276 -0.234036737578
0.343150006576 0.393948861990 -0.213681571247
0.402249180250 0.387154242720 -0.235573683242
0.381000200066 0.197826493921 -0.271173450709
0.341933255321 0.218907428775 -0.272917089836
0.345989046812 0.236899899717 -0.262565862069
0.412990696879 0.225237222645 -0.252450291485
0.335548418195 0.346620231279 -0.252904013384
0.375261667953 0.314412358470 -0.223413661848
0.386011233401 0.335109244106 -0.173901175289
0.381954147446 0.321000567191 -0.283197160431
0.012970065058 0.330850257644 -0.483797099268
0.016304020652 0.335132833781 -0.489047137042
0.025518000354 0.347366426951 -0.471295564289
0.041381957068 0.345357038867 -0.447586568311
0.356578114879 -0.122765132950 -0.290619853574
0.381682543088 -0.138378861427 -0.244287327193
0.353897392359 -0.146833301661 -0.247617399533
0.363948154670 -0.149280748785 -0.199169511866
0.384255900969 -0.171835711331 -0.197678530217
-0.257346435316 0.525481819154 0.044170530573
-0.280619515347 0.487963042028 0.006810146794
-0.219223690403 0.517939440342 0.042853274294
-0.240940612379 0.473306928049 0.078092059562
-0.380578866624 0.481930645875 -0.252770979696
-0.366570565695 0.422096685218 -0.327317131685
-0.363008449471 0.450443787386 -0.231648208372
-0.343429717386 0.429705512705 -0.204907699351
0.330262937023 0.185018779633 -0.024784012990
0.304845642253 0.255183896678 -0.017784414938
0.314879291651 0.238813749263 -0.026544674855
0.361485208617 0.219662067780 0.064312860360
-0.416518464119 0.456681772897 0.439516273740
-0.346567983299 0.450916054614 0.456562960634
-0.362316686766 0.460160845152 0.436422011332
-0.400634952428 0.489593879447 0.533050273625
-0.353017729785 0.468775242955 0.429030914154
-0.244862649774 0.512984560803 0.011389484754
-0.194834977763 0.481160279774 0.048241433802
-0.214972063416 0.490105496504 0.057547415418
-0.419785857510 0.437306605789 -0.250851412105
-0.370282068226 0.450548272952 -0.292511003109
-0.369165204757 0.404565303428 -0.271748369887
-0.391578157850 0.421641331704 -0.233648146392
0.277389498946 0.158089742860 -0.045898752706
0.351221104988 0.238010093234 -0.009427081431
0.293068932343 0.208624363817 -0.004453855468
0.330039933362 0.130467702740 -0.057190965504
-0.353246744974 0.303401329918 -0.467687521815
-0.425269582945 0.284265915416 -0.469711161268
-0.375248000996 0.325370970771 -0.457811397462
-0.371136873269 0.321028871320 -0.462230218706
0.182893593716 -0.473097642749 -0.450931591881
0.190552981602 -0.438740676102 -0.418556233779
0.168754169316 -0.410980270165 -0.447684301490
0.199331618079 -0.428146112940 -0.475224863338
0.350309237419 0.197919535237 -0.107095173413
0.330132982380 0.430827359993 -0.067274773229
0.366602054533 0.209716415027 -0.164977128917
0.416390690322 0.181018914115 -0.177517290831
0.339367831876 0.271843838892 -0.303917547047
0.314222300167 0.276601475870 -0.281501244138
0.339269047145 0.258608742241 -0.320006972775
0.290847479884 0.294644506494 0.015360619767
0.345708302584 0.273300178534 -0.012612532397
0.330061317400 0.295032371280 -0.059254634650
0.211817880773 -0.488974041604 0.035954201019
0.249765022004 -0.473927381017 0.105855394502
-0.135066836531 0.235685399990 0.228914246173
-0.167717658104 0.214908133307 0.220889623971
-0.190735705796 0.261764805680 0.191114346906
-0.156795497720 0.243845933144 0.216133890315
0.219428649453 0.511763685907 0.077413999740
0.193637517614 0.497594496092 0.074810789023
0.159798023506 0.450786353316 0.116826363421
0.205690932066 0.491467505074 0.105017006036
0.227391733099 0.511925670106 0.063190693621
0.197345725328 0.505969198594 -0.368091167998
0.211653765577 0.481365922999 -0.350630616209
0.223505036785 0.506851127837 -0.400359554139
0.164446239019 0.456841571857 -0.413296768792
0.190895947625 0.575431838153 -0.409260273558
0.199883121560 0.502587351882 -0.382308131623
0.190409728191 0.520077622962 -0.325583712096
0.252815593418 0.459601493695 -0.368959810381
-0.400956639321 -0.499670125188 0.132050474706
-0.417205060985 -0.499969460679 0.131174893315
-0.380561109871 -0.487063114933 0.173639091338
-0.348097427034 -0.502078666548 0.121504724191
-0.402443947219 -0.424738378106 0.143558268945
0.314447011859 -0.441743894234 -0.293963201665
0.282697580896 -0.412121401340 -0.313585749246
0.330203261141 -0.411898624693 -0.363746354927
0.319803950134 -0.382801958239 -0.370720243316
0.332393470689 0.254576244500 -0.375138662878
0.327228081102 0.240662008913 -0.356704381585
0.317320161263 0.256565333545 -0.344984519195
0.292705855255 0.248603419351 -0.345664988763
0.336524131763 0.192361458419 -0.085705292494
0.356397593300 0.224267799829 -0.140264932995
0.345022677261 0.211664795983 -0.129759039374
0.406418238269 0.176514413807 -0.157454945697
-0.114900747330 0.485410968978 -0.324319849880
-0.130155149001 0.502555363787 -0.250879797428
-0.128358811199 0.487489085532 -0.262706469338
-0.105743622060 0.503337902207 -0.270953467797
-0.102074763534 0.544488098946 -0.299396855282
-0.123911559093 0.498914758243 -0.276075444880
-0.135712496080 0.427863002968 -0.300179094883
-0.131836272527 0.527915084106 -0.337478650960
0.372229286360 0.336471662023 -0.282700145535
0.335448555201 0.350916931369 -0.318673571377
-0.085378013549 0.134717246029 -0.013172657726
-0.099372761387 0.124039533690 -0.057672392750
-0.082029178371 0.118634728943 -0.020880741333
-0.133402729239 0.097565649665 -0.038428287304
-0.127526366198 0.111416633855 -0.041469383941
0.269351456457 -0.386966488069 -0.384988308472
0.312797858835 -0.422340527742 -0.374897980493
0.295674744089 -0.429940356846 -0.405263922241
0.280360413883 -0.421337235469 -0.372172174052
0.310363483485 -0.375301161388 -0.349429718563
0.233653609600 0.462906103207 0.093623482300
0.136498530037 0.451089729772 0.084014445399
0.185832959698 0.518130918244 0.099622000147
0.162475485176 0.512230333698 0.054426704353
0.179400757124 0.471200577780 0.127426779106
0.139000632265 -0.186515759046 -0.433239250291
0.110753158109 -0.261133285416 -0.488373355154
0.104116028797 -0.251128934860 -0.485490311228
0.114425186216 -0.215434085854 -0.493755574534
0.098749507784 -0.227678215508 -0.473309253130
0.315234523414 0.440455190773 0.020638454605
0.299496936240 0.424053152298 0.024407926076
0.387483889191 0.425352989563 0.020019402374
0.319283025129 0.465657516994 0.032563339993
0.330913888195 0.460987433431 0.078583336302
0.352037113887 -0.351621898453 -0.045312906493
0.317461007561 -0.299998453190 -0.058092415283
0.345030172859 -0.329741544644 -0.078357369003
-0.084887905377 -0.147858611464 -0.513989619211
-0.014198313534 -0.234122830203 -0.466346932731
-0.065480304977 -0.165875871211 -0.481295629886
-0.065304375799 -0.159441071980 -0.502566925835
-0.161239108917 0.457953470196 -0.343792124631
-0.105531150229 0.485872581346 -0.298725424934
-0.110650226237 0.498297345489 -0.258750533481
-0.127663061835 0.465730452532 -0.326258325276
-0.067162526360 0.549706016166 -0.374727656781
-0.054958259918 0.506076889897 -0.373965823470
-0.111925046348 0.481119049449 -0.348962782295
0.322242166134 0.471515292526 -0.301726416178
0.334242578625 0.510249884982 -0.328848309580
0.350927164571 0.500819955575 -0.296650116927
-0.372008052507 0.494252607444 -0.475472260823
-0.357144498708 0.528985972388 -0.458183435659
-0.343418025358 0.478039889905 -0.436992797724
-0.324491673498 0.491935905058 -0.434917613759
-0.062834072556 -0.234636463088 -0.367279952538
-0.051148917400 -0.254259575637 -0.321221070217
-0.027735323367 -0.219999806586 -0.352688673909
-0.066812160153 -0.308979595890 -0.344066617459
-0.154262346705 -0.129237075929 -0.062430823008
-0.134685504901 -0.100942179730 -0.077661813591
-0.116224138320 -0.134335613467 -0.045120962955
0.104277638002 -0.432695645813 0.191653434838
0.074197120946 -0.458545180780 0.199896215893
0.082863122232 -0.442632431805 0.167861675362
0.060069509185 -0.447661027252 0.136138483113
-0.403018433643 0.513680018221 -0.140321065751
-0.320426205131 0.502936340105 -0.123330610278
-0.370312111381 0.487905820322 -0.154310466125
0.079945480038 -0.422042671307 0.184358359211
0.042640965119 -0.415937635398 0.167328278201
0.034767553821 -0.440379380450 0.151292896307
0.270629447548 -0.372852786606 -0.374088386785
0.231652305094 -0.400929128938 -0.374357494366
0.232942390150 -0.404927922163 -0.403470949921
0.261892846701 -0.378253921892 -0.460752737140
0.222042527326 -0.392531459258 -0.385784099451
-0.145240222143 0.272422597005 0.243966366886
-0.139502379075 0.323502562090 0.211461258061
-0.125375344773 0.289102351428 0.238504179460
-0.139599574530 0.313934535970 0.273573427792
0.305622445730 -0.135979601788 -0.363235568532
0.303018613451 -0.175336506182 -0.345213840446
0.267830174898 -0.155628586636 -0.289455943251
0.325559407712 -0.162888591125 -0.362981092663
0.306834490938 -0.198640130304 -0.325711618419
0.251557558340 0.503170871174 -0.299782468445
0.225348946176 0.512315881605 -0.293659512648
0.153664389715 0.477271260628 -0.344827191763
0.173913766523 0.524429192160 -0.337596046718
0.176341842858 0.481653361794 -0.396218948192
0.175235345078 0.482281680716 -0.359816110860
0.288403775471 -0.259450352692 -0.313311739345
0.270603767131 -0.275204784885 -0.382288710282
0.305640169417 -0.221244710105 -0.375507362540
0.281235723749 -0.252819827339 -0.392394522854
0.381657543581 0.213570664796 -0.048901273535
0.337397859314 0.210719479881 -0.097826739673
0.378019257712 0.226198567304 -0.100872846574
0.354370703515 0.239925118409 -0.037265764162
0.275821545380 -0.179411649829 -0.412077916268
