1.101196028821 -2.446100195301 0.670518015559
1.012247100804 -2.434041251885 0.655681949301
1.159957854516 -2.395175602565 0.938930837074
1.107542142949 -2.408384592821 0.914182824042
1.184360681426 -2.399741821208 0.954316862809
1.141192211625 -2.442346604320 0.900714671412
1.220212285105 -2.427218040601 0.972028020522
1.177167364621 -2.420770870485 0.966124254522
1.099636588543 -2.408711474776 0.903854293313
1.175202572474 -2.424891454689 0.967568024092
1.155631978649 -2.432492684004 0.946332555241
1.140125907629 -2.433182409284 0.916035692414
1.141108561814 -2.415200682167 0.958692581652
1.199136997602 -2.403929795961 0.870168325962
1.154890759321 -2.432090951438 0.935666808073
1.076709123355 -2.423509242528 0.917884168670
1.144364609024 -2.378616564868 0.890478864445
1.170226083437 -2.399447092025 0.934132100779
1.185564633700 -2.409603407295 0.973724950604
1.132687333786 -2.396616501671 0.942960599153
1.153754494742 -2.406324090516 0.943856974929
1.104148505717 -2.431641319514 0.936988988711
1.105487779175 -2.463908499965 0.881916930190
1.035907895051 -2.382623835817 0.919083760104
1.189570236825 -2.388436619223 0.984682774267
1.027653031545 -2.466552919230 0.929584366925
1.014291517934 -2.436119220695 0.897017515678
1.018274806714 -2.464603869708 0.980967669175
0.942007905285 -2.438679769544 0.925710674562
1.032561221199 -2.454395593475 0.956909942828
0.954661255347 -2.443672101098 0.920318990365
0.908575318182 -2.419435219913 0.916700620198
0.948285886989 -2.363425164358 0.898123046070
0.965612941943 -2.464035945344 0.896565700671
0.944614529075 -2.417322932957 0.889916695062
1.024579169218 -2.425371261717 0.943240540295
1.037360817685 -2.407275597735 1.006456576311
1.002477915131 -2.425195474399 0.909508526817
1.061358595857 -2.412604270198 0.961457557365
1.045203823677 -2.425714440973 0.965218669344
0.934044110240 -2.420438120392 0.915055204435
1.029383833954 -2.435427853333 0.913364104767
1.016697493283 -2.396966485078 0.984956627713
1.037161919976 -2.409137565884 1.022338427078
1.042120322496 -2.411880532912 0.897527836123
1.029095188876 -2.455276061303 0.917045076488
1.015575370248 -2.452543162058 0.909594390006
0.831594583544 -2.415462207282 0.806999558175
0.869817395204 -2.401940732348 0.724016130529
0.834137025705 -2.366629482589 0.828127144698
0.806521407447 -2.420159449607 0.744515848464
0.890127749118 -2.426770765586 0.781186780321
0.895061630619 -2.444623839344 0.811229344422
0.798807585741 -2.398235277653 0.784638099401
0.828076605550 -2.414363556777 0.764141468298
0.900780611635 -2.412571890790 0.799246933714
0.889731202012 -2.429472097406 0.792657083631
0.841974992568 -2.398669571608 0.830006834008
0.871286099247 -2.415077720595 0.823081420471
0.902384679400 -2.436191519536 0.773237637827
0.817769657620 -2.402690181482 0.735927360384
0.906908700151 -2.416803251059 0.733807746410
0.835653167728 -2.389088926134 0.761128831073
0.815640993903 -2.401973505490 0.786288275223
0.856038441295 -2.403712791978 0.809232592234
0.851239202415 -2.406134911111 0.761461745805
0.862900497895 -2.430597093578 0.782422528429
0.782129176027 -2.406887305317 0.777724440308
0.899153696164 -2.434223371670 0.797756313755
0.797738035938 -2.409117942668 0.748238721481
0.795799709035 -2.409092225349 0.787649281056
0.898486142990 -2.405523234546 0.642726780306
0.861176805572 -2.441237496937 0.595413477301
0.857330978131 -2.382511352598 0.667668365442
0.906718629715 -2.447161921453 0.653442832110
0.896919632382 -2.405690215169 0.537221647616
0.812097713778 -2.416528619034 0.574148721885
0.877158536212 -2.443163249423 0.737909969474
0.853864209075 -2.435402747378 0.660764341634
0.826765592581 -2.418353329570 0.688535453216
0.843393770849 -2.396325451256 0.598930865808
0.885179532140 -2.428951094851 0.594246161293
0.891384876168 -2.453721795197 0.600407802799
0.936329503284 -2.449668986887 0.673188179872
0.891643359722 -2.420521444494 0.629831984922
0.824567976977 -2.378574910411 0.646371279208
0.899750140164 -2.415261980861 0.679148749339
0.930684603817 -2.407176602347 0.604168580571
0.828663800220 -2.425504351261 0.593514546822
0.838607421405 -2.419121424879 0.581180425426
0.882534610703 -2.421521667308 0.597764703940
0.916088072096 -2.421924259359 0.687550060981
0.893184634461 -2.442441560180 0.633391626853
0.864744417930 -2.458421824535 0.626976506305
0.856070674800 -2.393796348362 0.622827193868
0.880881657713 -2.414291517986 0.572853752067
0.851108090680 -2.419264462038 0.881963313699
0.813616071489 -2.425202501325 0.912190555905
0.802969867478 -2.406926921499 0.937418011077
0.844318677314 -2.378870570215 0.867937632852
0.918422075769 -2.433527215035 1.023058048491
0.815107403679 -2.402469400614 0.959034685630
0.889122808250 -2.420200984852 1.002408065907
0.889142599660 -2.404610018597 0.887080518756
0.816933022612 -2.389188279791 0.950675441678
0.863604205129 -2.438110389894 0.941670045568
0.880303468219 -2.444230001549 0.879768334583
0.902646131734 -2.451958866797 0.935596858411
0.890915001792 -2.374424538790 0.965592539184
0.845205075928 -2.440022271426 1.012914660546
0.831581722125 -2.443667545219 0.988765011187
0.783549297686 -2.423067573559 0.916427781612
0.847486096400 -2.401960622925 0.927571513603
0.852615149231 -2.442082548345 0.923858587027
0.814504272283 -2.414226889954 0.904560478606
0.897600154823 -2.427413158298 0.955837475804
0.881955028730 -2.452370828310 0.934687165724
0.842800409526 -2.402828093759 0.965627127366
0.781323334934 -2.437355158049 0.908664105706
0.750164398599 -2.349006956704 0.846214866976
1.024007436696 -0.745253296983 0.010178906970
0.726622293989 -2.348635409930 0.853668566910
0.642288445096 -2.360089792922 0.739351523217
0.720343803859 -2.365879611333 0.738646360861
0.669658498826 -2.361200233579 0.769332806522
0.691531094557 -2.364579325599 0.732407896956
0.738219286429 -2.379095190025 0.782701406601
0.715639791030 -2.357716137487 0.781302328259
0.731826203404 -2.440668347736 0.775600439106
0.738883873865 -2.384661743920 0.820841531094
0.746090092589 -2.355818549329 0.811114012982
0.732845782702 -2.363925163381 0.866205476931
0.665408600745 -2.346069664532 0.714975706453
0.722396509252 -2.389699733157 0.808269119515
0.683414855726 -2.333669499668 0.814339422734
0.665448001364 -2.353488631857 0.789391702437
0.757510206562 -2.373676287210 0.755925340558
0.708757972798 -2.377794142375 0.788546716520
0.668120243121 -2.362278504408 0.811011122963
0.706436868295 -2.400725318151 0.814138968689
0.641474573450 -2.353989747734 0.766148125342
0.690807622443 -2.355309329535 0.809899138345
0.795752076666 -2.368047795714 0.809707273790
0.680032215071 -2.347332275694 0.888729201418
0.730915464643 -2.354623954470 1.015433578192
0.747211805727 -2.370989496986 0.902601936979
0.737578444365 -2.376667567813 0.912386889014
0.734502739808 -2.391887068010 0.942879485581
0.692377077178 -2.358202072607 0.907729250019
0.731051439545 -2.440329683357 0.868933302969
0.724845455268 -2.400321491655 0.977495689693
0.745223446720 -2.407529930923 0.976444993068
0.775121279099 -2.418432788882 0.989799434528
0.731244998872 -2.361437492805 0.916725184528
0.735077160660 -2.350913132295 0.954112664824
0.718791512707 -2.374589471600 0.924429185849
0.675106492472 -2.362884223223 0.944712618179
0.695181872815 -2.365534335939 0.931153038419
0.727945861774 -2.358992271147 0.897730422796
0.704748928866 -2.365361138218 0.880860920824
0.620364392353 -2.328283879385 0.928608884166
0.672904093949 -2.335891203845 0.923902981722
0.671084905468 -2.326876158412 0.946484650680
0.727514660402 -2.366804734318 0.918540432760
0.747061444464 -2.362601623979 0.963613390423
0.588667043798 -2.317972315282 0.828544664163
0.568158712167 -2.320837985736 0.799632663336
0.631826101218 -2.313775540760 0.868030999324
0.604642467041 -2.294530469840 0.762427263889
0.583890975257 -2.315895447359 0.888641150221
0.579110456430 -2.299634673811 0.774643789604
0.588588346721 -2.288970368994 0.792976077089
0.571528456760 -2.279974487372 0.737302122763
0.545833373276 -2.301935744954 0.796388635798
0.540032232085 -2.269328945221 0.868283031602
0.632996891499 -2.319064508808 0.815332617154
0.628433441881 -2.329755257531 0.724147873274
0.531889921765 -2.278804948464 0.759613143328
0.570975149626 -2.282341019439 0.773220748507
0.606692144284 -2.291882837780 0.840999317999
0.591574966541 -2.303816764804 0.765626663520
0.636996590774 -2.284637208490 0.770256870807
0.550569954730 -2.271283611602 0.833315803197
0.618355991129 -2.302313857822 0.899346618095
0.502843325222 -2.236421176423 0.773249670566
0.608431516755 -2.302869186162 0.791742107573
0.622173195258 -2.303927466284 0.863581704244
0.550145868767 -2.265331253793 0.750156083532
0.583165415393 -2.275741396693 0.841501831545
0.624249226373 -2.271262044855 0.943559030426
0.560255136491 -2.293017846401 0.944774417312
0.627639920703 -2.330147699244 0.997644709501
0.642344298015 -2.314324658444 0.968129188435
0.568086186385 -2.234549581873 0.922327001558
0.597159577682 -2.286989654609 0.901152430900
0.545931155906 -2.284465173750 0.951281405650
0.604479695214 -2.314469194911 1.018295302574
0.548412835068 -2.290690079208 0.925099309152
0.604361116576 -2.295699751397 1.015495522661
0.564889235601 -2.259972167648 0.913358159105
0.572539150045 -2.275956581287 0.927057076047
0.647833783062 -2.309149234458 0.901065427700
0.626067909586 -2.311375090253 0.903457647678
0.619727511983 -2.294706649232 0.960477340315
0.522882296066 -2.254405960471 0.918018324063
0.534195225002 -2.241205624851 0.892024220154
0.599494513598 -2.299892306235 0.945050584272
0.598946531432 -2.278062104961 0.922573975277
0.627565114938 -2.323893845806 0.894644639896
0.616295057179 -2.318306462990 0.942185570752
0.582790124245 -2.268975191025 0.981206590817
0.557649333254 -2.310104206041 0.884679662895
0.777905447143 -2.383534920759 1.098981778876
0.728495483097 -2.393707866199 1.142214612785
0.716551627748 -2.410578631745 1.111942775232
0.680306635821 -2.347237659321 1.037754435397
0.654966865325 -2.351353663727 1.038471616026
0.693139765697 -2.333133296356 1.090592563720
0.689654043884 -2.332973304324 1.052497815471
0.719392179652 -2.420536402027 1.104105872192
0.689824147993 -2.354886828454 1.095293384206
0.713848920152 -2.371441441038 1.116281220579
0.752547788039 -2.378104917493 1.146249532704
0.673271472957 -2.334323266138 1.059502455278
0.644044919247 -2.336347439283 1.065264476287
0.684012152306 -2.333116837970 1.070654555419
0.752729204379 -2.405219749556 1.053138743861
0.741699299346 -2.385107163863 1.072120246128
0.718712617040 -2.353484300995 1.047413596885
0.631929949039 -2.322932419917 1.038488949705
0.732733258802 -2.372994696722 1.041680446390
0.721305218798 -2.377718799227 1.112513335831
0.760655037662 -2.428311949306 1.066556175627
0.731968196349 -2.398404503345 1.057764801375
0.712757698296 -2.363242966204 1.084109504472
0.563992607109 -2.258888351121 1.076132409226
0.551664429801 -2.275363856659 1.050340097371
0.564483809924 -2.276266256689 1.102957243663
0.604809358245 -2.297778027854 1.125682222352
0.557193997066 -2.278312430441 1.042392102142
0.590425972442 -2.301981100682 1.106310386920
0.636009267105 -2.302320850606 1.122866362333
0.545555606249 -2.272303515303 1.057740809499
0.558723579655 -2.263121702133 1.104259387890
0.585585581956 -2.299826551407 1.057727273059
0.562461918038 -2.290790174678 1.094662714899
0.602483638121 -2.285607841576 1.125687353116
0.536779051104 -2.282298400789 1.048919844475
0.591917470100 -2.278134799567 1.120027759459
0.594822305036 -2.271861723193 1.095512242088
0.622108914248 -2.302916293639 1.077821044819
0.583133407799 -2.330326256143 1.141283409524
0.582743692242 -2.310156451202 1.183594050330
0.590876665307 -2.323730026219 1.039263461770
0.582196198564 -2.261588555560 1.035343671271
0.612544464680 -2.346557740395 1.060652964784
0.497317904678 -2.234724597878 1.027778289701
0.530488097055 -2.292226249418 1.078696710170
0.739901495748 -2.343932515886 1.227543288272
0.699439613040 -2.386903957236 1.261014558424
0.696002113677 -2.353470122116 1.250995706865
0.700198540575 -2.394653325244 1.245840182298
0.719824097425 -2.336473214014 1.237133387924
0.716094959774 -2.360402136547 1.225919618792
0.649836864506 -2.361775269905 1.250994103271
0.677795940565 -2.341948441623 1.145574534276
0.750298893977 -2.357604139335 1.227533338985
0.645215512308 -2.364937842089 1.213349329180
0.732555728575 -2.389809669391 1.211532401102
0.720345147351 -2.348246450241 1.280759408511
0.660153321989 -2.330710211104 1.242163568310
0.638510745280 -2.306916000881 1.143682001165
0.727470824325 -2.380314200294 1.186098233953
0.633317725605 -2.314362309391 1.187850003008
0.696221409841 -2.331498528008 1.179987584453
0.735070196727 -2.371501711709 1.263285111280
0.703712347053 -2.349473428472 1.304971372443
0.706230182214 -2.350800093802 1.206816666050
0.693300530515 -2.385638403982 1.207932341119
0.663310283232 -2.322211454472 1.192442738686
0.556914358075 -2.275816634167 1.258923457621
0.534966072028 -2.211049436759 1.308362189398
0.572675671551 -2.250493114411 1.250574253481
0.629463727922 -2.307996623510 1.266280682225
0.605847959093 -2.316093244896 1.332375917877
0.505839215844 -2.241103789559 1.269284191230
0.606462583727 -2.334161493302 1.296482633792
0.558821597376 -2.264442464749 1.268873866772
0.574680148573 -2.304552611508 1.288507598856
0.610024788754 -2.291010748806 1.221160099404
0.576620529068 -2.278421502961 1.190272343760
0.565965699076 -2.288480320271 1.243913281226
0.619102141130 -2.279169355405 1.235810923337
0.581934514442 -2.282497887625 1.241121206921
0.596585800305 -2.272703450956 1.242563504992
0.621008291856 -2.286168162406 1.232504774102
0.513418902261 -2.270424304987 1.274795485782
0.518780292181 -2.229253262903 1.300356834016
0.515700019931 -2.292347747489 1.296649098962
0.583606513204 -2.268418648214 1.323446162849
0.532797703014 -2.244173797302 1.290376623709
0.568325500095 -2.252790739645 1.259570212282
0.454826833951 -2.165038869156 1.154427499306
0.437167309373 -2.105679169382 1.113998933729
0.486015238790 -2.175833470915 1.114621854849
0.462862064095 -2.171989155274 1.085457485031
0.492822340386 -2.140841273594 1.182621577735
0.438825125810 -2.113886285082 1.160711687191
0.441252075085 -2.119391161132 1.152953998565
0.441527853125 -2.146987647579 1.146302020511
0.482202495843 -2.225902718944 1.150591993996
0.485856949693 -2.184953206019 1.080617810196
0.471367982937 -2.181887697749 1.154772887444
0.477776805267 -2.214318454451 1.133160052902
0.458291795100 -2.152567385599 1.125893332528
0.483927413376 -2.175936215707 1.098679270257
0.488404769751 -2.212599945025 1.133784850766
0.442240892493 -2.081033823129 1.178414764734
0.514346124540 -2.173498496547 1.199963722460
0.477390773233 -2.231369631993 1.170665506347
0.475833413367 -2.183154159868 1.173521968825
0.435292129507 -2.105468744484 1.139119342332
0.489854705895 -2.197627533041 1.109119805033
0.426110469158 -2.111293599829 1.181277864801
0.482079999638 -2.213835081406 1.113731427355
0.438700030152 -2.155504677856 1.271393361638
0.430993766766 -2.127977058595 1.303207256188
0.489024042086 -2.198825844455 1.205047067638
0.490762483013 -2.173159136411 1.301332061000
0.449517240897 -2.130227350572 1.292968037386
0.489968962159 -2.187729402738 1.258609610643
0.509472769077 -2.256716372870 1.301833093895
0.446809170083 -2.146271311478 1.309370422513
0.485980690603 -2.229328567855 1.262179491263
0.459927976190 -2.152406300885 1.246424537422
0.477337012234 -2.165543670364 1.261204859806
0.501353563462 -2.240810082491 1.205125804066
0.439804688062 -2.107262635809 1.290110049945
0.448813058515 -2.157533478085 1.283381774640
0.448297549413 -2.117319793463 1.323532421414
0.509056561702 -2.217763481207 1.245655771752
0.443371522388 -2.173638875573 1.279035187109
0.477617167284 -2.144167328550 1.301500222262
0.526302801836 -2.185416652493 1.326414824524
0.470413093953 -2.142099650463 1.257043590596
0.476301893842 -2.183331314047 1.287280128727
0.459597298100 -2.200582510803 1.228759543637
0.608087277851 -2.255030084413 1.306276247497
0.547807926967 -2.195465009067 1.341156835701
0.580753049361 -2.222174477689 1.305697146708
0.692847765638 -2.186537306330 1.348798046661
0.590508523716 -2.205958830588 1.336476628447
0.555692531102 -2.255643989122 1.357611305377
0.621441934357 -2.213359977903 1.345622672873
0.553102508853 -2.243658973554 1.340393514009
0.652053246190 -2.183719498313 1.339508853449
0.574090985467 -2.247616415851 1.306136500713
0.594271076821 -2.294225815104 1.299810708696
0.509818645021 -2.253958466660 1.336016370997
0.646527739445 -2.253957175196 1.324198643320
0.700330138832 -2.216551292066 1.318186690319
0.627858456884 -2.240017197497 1.316311630636
0.628805577742 -2.292160333611 1.304796309777
0.620675621538 -2.288665484361 1.299145569894
0.693666205097 -2.200978581013 1.302965609836
0.638917415090 -2.224191315748 1.324947408926
0.672310313882 -2.299087153098 1.334602072309
0.530097632588 -2.217893679692 1.347119118036
0.673203093372 -2.192441075787 1.332285849687
0.645400263520 -2.247568139221 1.319177401310
0.539984932379 -2.143263479880 1.303954809663
0.465958239334 -2.146903936493 1.334382049584
0.437015830603 -2.122540387810 1.302293649946
0.538502792837 -2.124315981648 1.330622015902
0.504080888604 -2.125702153189 1.313970808745
0.468466627802 -2.120479657599 1.326684773959
0.521211759102 -2.080945062290 1.300464713995
0.543569150373 -2.189571172177 1.349464091113
0.497351085092 -2.185570874296 1.325198526465
0.541305042644 -2.203565022460 1.336697735905
0.516019758317 -2.123688790875 1.297068434578
0.542215158862 -2.112609804949 1.286440437046
0.490482943817 -2.138115949568 1.323556270753
0.528672529394 -2.210600360521 1.337318857499
0.465866349814 -2.156519778878 1.320922463082
0.521557742312 -2.137130561894 1.322243350394
0.565188248668 -2.102095138005 1.330854484785
0.511734776152 -2.167248256152 1.323556733700
0.562564424938 -2.109817515498 1.262462935826
0.470459385029 -2.089320720339 1.294561463971
0.517989525241 -2.141912865269 1.329914471962
0.498180035084 -2.110047922982 1.304312147800
0.569050197624 -2.084585049848 1.301152609111
0.491535638881 -2.187177242909 1.326019646679
0.421575666286 -2.063612151091 1.288506763326
0.383098579397 -2.044718543355 1.295687807215
0.335854547568 -2.005991122133 1.302077549794
0.398153361487 -2.094179422065 1.225392806448
0.386070131551 -2.061792355083 1.283291568806
0.399910346572 -2.054648916173 1.262916790035
0.355851685570 -1.934588289163 1.311774919401
0.375166501710 -2.056102474965 1.331817973182
0.376926417892 -2.001045635948 1.293365212764
0.364812439969 -2.018785750895 1.256814837249
0.343593456550 -2.011700969171 1.291701828963
0.357511211506 -1.979834507850 1.301871455452
0.399038718022 -2.049151970962 1.251444911924
0.363144348617 -2.010568858324 1.303832926352
0.369000651630 -2.042724505880 1.267452566206
0.382079048402 -2.055556053114 1.304449465571
0.386985965138 -2.004726626186 1.239169968439
0.409394315162 -2.117529222434 1.204537030050
0.433500242503 -2.088329340755 1.269137737238
0.364966424242 -1.975451765649 1.261313989659
0.408178534222 -2.042639731685 1.242963604940
0.396444846616 -2.049158255026 1.289456802525
0.389435759517 -2.084863047606 1.190920996064
0.420377101147 -1.998499313282 1.316160197721
0.433048138283 -1.975237548581 1.316892377472
0.488688006927 -2.020288459070 1.349318062687
0.437572801115 -1.960216492813 1.331067499785
0.409362952523 -2.005544556902 1.334171743167
0.380797133343 -1.944348069436 1.323574208804
0.490356762792 -1.979896670239 1.314162676733
0.470904411399 -1.992619320334 1.309191043650
0.424631610982 -2.041281948610 1.337901465689
0.416095704773 -2.014741351373 1.297308720599
0.487710957172 -1.967789445944 1.315297563755
0.448435154089 -2.071437849882 1.311956049622
0.440337366981 -2.000479145932 1.308119828199
0.475466745974 -2.047273219555 1.303440114600
0.396669646084 -2.070410366165 1.353040357526
0.445259659324 -2.029230571239 1.349740443283
0.420649302578 -2.084717096924 1.317618029679
0.420052737969 -2.000639264852 1.325053636852
0.458823667022 -1.921715209241 1.309013144548
0.390018860444 -1.987985569776 1.324806490329
0.477177247258 -2.034147400008 1.322092839805
0.441502390225 -2.013416336317 1.329346074368
0.405381869187 -2.033632675909 1.341903620374
0.506859764209 -1.989092286163 1.346039985437
0.481619206617 -2.035506344804 1.345960768816
0.407830329347 -1.994210536491 1.318561310035
0.645178714708 -2.036365196453 1.314154270548
0.561895769779 -2.059277668570 1.299579942974
0.660699158009 -2.060693923225 1.276901645540
0.618198727131 -2.072993860710 1.321500729624
0.608946313684 -2.060427245766 1.294969003314
0.647690537282 -2.013298041107 1.331767403507
0.562721023278 -2.015437084568 1.333381350505
0.621266521457 -2.068038225301 1.322148203361
0.575173569456 -2.050141592773 1.308245278899
0.693789855893 -1.995910390059 1.310672074955
0.610540401894 -2.023214153835 1.351874275277
0.615833579475 -2.033950409423 1.320839081229
0.670668830208 -2.054373222906 1.357227185142
0.679489816700 -2.016227223474 1.337617649748
0.592463819032 -2.027569315965 1.312202642639
0.670224277532 -2.040864202357 1.333216036186
0.574436093320 -1.927549124203 1.348148442658
0.537736889487 -1.976569545938 1.320376144219
0.506834682294 -1.903365440474 1.327250951873
0.563772565512 -1.999685684058 1.326005119126
0.604330642911 -1.959364702408 1.345116945283
0.564253478182 -1.943273157247 1.333752435689
0.559347745919 -1.940326882999 1.321964552485
0.509084818458 -1.896218067387 1.327318864994
0.576124475556 -1.895625494438 1.328410083736
0.602416265021 -1.944086771989 1.315272379775
0.628655881301 -1.978112975686 1.304244703083
0.554466264007 -1.963577576252 1.338474459315
0.559261264617 -1.974126999372 1.327837025077
0.537491925784 -1.913055955840 1.328448320167
0.547888785196 -2.011542070103 1.346828189921
0.561463462950 -1.984876273054 1.323038339282
0.663688101492 -1.995072440940 1.326013545571
0.689087667060 -1.998443317101 1.316939457696
0.690664885909 -2.003551720812 1.316922314873
0.729416717112 -2.024913117276 1.213764950901
0.693791633299 -1.963602083942 1.296777083841
0.682015813258 -1.990311395550 1.295215354127
0.713333045773 -2.015925875810 1.277857894593
0.710879350825 -2.051870656193 1.303895447193
0.672413998905 -1.993300911984 1.302491816915
0.686136109665 -1.991755785681 1.317835417737
0.681333620428 -1.911471144167 1.270188193319
0.608723290917 -1.893097427126 1.300182512064
0.625152553558 -1.921444920582 1.263311498467
0.647640564164 -1.907957716100 1.317755493941
0.653636864609 -1.929531370795 1.292250518561
0.645188161966 -1.923936025916 1.337841590750
0.599857613251 -1.896864368978 1.271989679186
0.655827324530 -1.904549562993 1.261551400026
0.662330773179 -1.904308127164 1.256351268166
0.668834343295 -1.916117524518 1.238499677865
0.356656446953 -1.899446078221 1.324360954694
0.456155569086 -1.933504905691 1.315941246251
0.435177119498 -1.829050075258 1.331062481846
0.408255239484 -1.902179248089 1.322628245687
0.389939583658 -1.823129713747 1.318854330753
0.385601312641 -1.920857522736 1.309727120306
0.476684108712 -1.896798815176 1.353399019842
0.372916273058 -1.832032908252 1.319952328393
0.470720341631 -1.872055525771 1.332452294017
0.466909411201 -1.866283340593 1.351762624821
0.379238959464 -1.860150654745 1.335925207678
0.330237000864 -1.791171378574 1.311661279270
0.376139787345 -1.894689924573 1.339876639339
0.447135764177 -1.837925030502 1.315204934531
0.372652494843 -1.872494517559 1.309856550064
0.340677567396 -1.874992702399 1.294826484152
0.363300675093 -1.888500851860 1.286926790528
0.414380817963 -1.877660355970 1.321900155858
0.365387108748 -1.860978926742 1.311703606700
0.382480295778 -1.816250100991 1.322141830674
0.357365948407 -1.825147311948 1.308227509610
0.343899172827 -1.790344135986 1.322383697061
0.353456587302 -1.824515394450 1.304026631202
0.411537431284 -1.933538269554 1.318692676433
0.361524555851 -1.933388065226 1.287087576051
0.397245776156 -1.863818082230 1.342841882209
0.327797004241 -1.749132802082 1.309521708627
0.409758751710 -1.849265481891 1.314238583867
0.338649083225 -1.833355571635 1.323200975094
0.386999056330 -1.926248898923 1.346253118810
0.449042357809 -1.886734687114 1.296420089512
0.526757005197 -1.841164088642 1.330256623889
0.506501627364 -1.829065316011 1.306965628458
0.502036476521 -1.803107032334 1.310318007653
0.532053243798 -1.898844952751 1.336200158724
0.513136347866 -1.857497723050 1.337443854771
0.501641372344 -1.881428905415 1.342229434983
0.563957156621 -1.851053791274 1.344995971798
0.570568037333 -1.862179007973 1.310347034699
0.548402224739 -1.817428678721 1.322664099905
0.577274731635 -1.837306668618 1.307071293235
0.483634951887 -1.883911545458 1.374297616492
0.506537441573 -1.866637774596 1.336914111646
0.513796128180 -1.801644502341 1.338639623674
0.498702417378 -1.807572454197 1.353970730464
0.539957283381 -1.877294756215 1.302723180365
0.524207445616 -1.819215979242 1.298474628964
0.566507189015 -1.884199149445 1.315685361666
0.574694367471 -1.822673956304 1.345103243158
0.610291130471 -1.765327417518 1.255242229493
0.613999124228 -1.882824144725 1.319968110360
0.597801548924 -1.791000858627 1.343567080062
0.602161206574 -1.777979720980 1.273554130431
0.605683319877 -1.805719693403 1.302989559374
0.613962158588 -1.769262690416 1.294050603896
0.615424387186 -1.862976767218 1.304282256060
0.607578718161 -1.838315985088 1.270580017307
0.599958650068 -1.844536950664 1.228216880708
0.584808729296 -1.861624383867 1.288679496831
0.607260866387 -1.844894743423 1.273940339426
0.611864189559 -1.874288221876 1.211681277254
0.676387446853 -1.946697068999 1.202461034407
0.665583340944 -1.920702754083 1.154949683707
0.668446164519 -1.906907129083 1.139620487164
0.651747920244 -1.934126422415 1.129624469355
0.613625686101 -1.938059419949 1.145138673989
0.663400703553 -1.903954261467 1.216405899079
0.615845913881 -1.909335559603 1.231138677081
0.642658742931 -1.909632978344 1.170045980150
0.641371335999 -1.927244045304 1.173381861486
0.636569432743 -1.911275871083 1.208903496046
0.509718521518 -1.689298379587 1.358132184793
0.538359962963 -1.715872026494 1.310072132925
0.544354984362 -1.724739284795 1.325256105376
0.504352587914 -1.684143333056 1.335073904515
0.542134745190 -1.749299475058 1.357073722209
0.527031889298 -1.619642404218 1.344040055093
0.533998106096 -1.686317634657 1.342760672551
0.554157214068 -1.665132561611 1.295736973021
0.481063919269 -1.735761898090 1.324256520685
0.504611093726 -1.626740766519 1.314374408789
0.528821755098 -1.692440646681 1.297742135493
0.531539019316 -1.750515705524 1.320269952370
0.486614744391 -1.655799630270 1.335592386702
0.501956586987 -1.682323893337 1.336272471062
0.497748111237 -1.753960866529 1.368374126463
0.574991563836 -1.772551396885 1.326640137199
0.529753145197 -1.732258715349 1.328377230321
0.475293220709 -1.748126361746 1.302908479951
0.634801243441 -1.757685913289 1.274838494594
0.605352495800 -1.738859908394 1.228816294584
0.572352969278 -1.695304717833 1.273627234590
0.599458363087 -1.742667413011 1.252117675289
0.623315131290 -1.749344873598 1.233104623683
0.608280448148 -1.672941648518 1.267356861892
0.615159923797 -1.715626382872 1.235271996380
0.628455893491 -1.732946808157 1.259214179770
0.625624953648 -1.693005512500 1.274625295771
0.588989874199 -1.684485518261 1.296832253051
0.643345822679 -1.719852332693 1.302218896082
0.597643101002 -1.832714920878 1.138006445289
0.600258503513 -1.822059015252 1.200682892430
0.612489486466 -1.828650244003 1.185313144745
0.620868654001 -1.764919671979 1.193822064699
0.584589313160 -1.871109400844 1.159418820865
0.624917331899 -1.792172526582 1.213786384348
0.629987550148 -1.853727058222 1.169486894252
0.620898859630 -1.871397005539 1.201265529345
0.581934674957 -1.786153104654 1.206837244663
0.602376512462 -1.830995081549 1.130228956931
0.601932763884 -1.790804659743 1.185537848987
0.608783860580 -1.718455392268 1.190976299857
0.589451717902 -1.723812638876 1.137767037618
0.620731362282 -1.744501153297 1.182103274187
0.617493928912 -1.691761908593 1.159556612343
0.610760258683 -1.719952804207 1.145207270177
0.632405434956 -1.757425013095 1.216567953177
0.623148534910 -1.735141470073 1.186982827570
0.581568340335 -1.771297511514 1.208140681777
0.604046180417 -1.731118815258 1.155710966777
0.611643662188 -1.753419305143 1.158864444094
0.587980599657 -1.665018278372 1.171355652140
0.574154454408 -1.693856150719 1.203776583137
0.572075274656 -1.626199092186 1.296885549063
0.588597672706 -1.620136747954 1.318107942348
0.527922083454 -1.506556327207 1.296091194176
0.523233419196 -1.560562673359 1.329103271629
0.587215388880 -1.544503306747 1.343719147316
0.560237653589 -1.532795254409 1.337817449540
0.562250326208 -1.490350586022 1.308382385528
0.548389582500 -1.603515335502 1.343955655159
0.633288240994 -1.637030559294 1.341910435835
0.519815001725 -1.609681538173 1.323227726635
0.500095583727 -1.617682849587 1.344261204160
0.532179568684 -1.523840620035 1.340277074222
0.516183071229 -1.614983993870 1.317275741760
0.595434459281 -1.608809745404 1.308126370224
0.537012166118 -1.579419141443 1.339166428480
0.521482727157 -1.646104719304 1.299418059342
0.652923040542 -1.588993968028 1.308962346938
0.614542915673 -1.619023411931 1.297815365069
0.636846989899 -1.653775175067 1.293243960348
0.643997890339 -1.642616000861 1.306914551206
0.604557033156 -1.590266273987 1.284571731835
0.617144101224 -1.663871496830 1.268373899516
0.610088874157 -1.680487489864 1.247632227258
0.634975496360 -1.566239425659 1.300759795947
0.646440775130 -1.601415539741 1.260403866721
0.598643410868 -1.644025613014 1.220795832126
0.607875593084 -1.573567933317 1.265160365812
0.579437168990 -1.682159712383 1.101880149079
0.617330015232 -1.694696196550 1.070818417089
0.604876088690 -1.734563844261 1.054390804248
0.627575778922 -1.674406083725 1.059384204215
0.627569435919 -1.711889366188 1.065762375592
0.591917644467 -1.758473116927 1.105956587065
0.596942737469 -1.746268141727 1.073779352394
0.656633921297 -1.689231797618 1.059141995978
0.594226568830 -1.691116196013 1.028648299866
0.597348890590 -1.729828193239 1.076706138736
0.589653758013 -1.744926175540 1.089765241240
0.642155639300 -1.575626766177 1.256684527783
0.678829383323 -1.610329649304 1.185034341918
0.622387265198 -1.627043740622 1.166624204556
0.636878515997 -1.635649818238 1.136381450801
0.649991402652 -1.634612054666 1.186061354896
0.620451901841 -1.599206882870 1.196176289226
0.645781231400 -1.656107002616 1.151842723387
0.629297038849 -1.568888777435 1.167745942525
0.629658412704 -1.574591922640 1.185596138520
0.611214828256 -1.619374392697 1.221960724088
0.620510767739 -1.647651961260 1.208266980087
0.583404948066 -1.508788868090 1.375449207493
0.594842547165 -1.488475517540 1.299616438553
0.627844580764 -1.436674259193 1.307891915746
0.622976424062 -1.503787034920 1.309824994669
0.597109143364 -1.540938688573 1.335380246575
0.599951488503 -1.490987029849 1.317337977743
0.575541061552 -1.462093690555 1.301316394720
0.632582695040 -1.471789796389 1.329508724570
0.570999092095 -1.484708913929 1.342044269242
0.610824073847 -1.445020425410 1.319076799222
0.585879705670 -1.454211070242 1.363477844429
0.629362013396 -1.501915045471 1.316215214651
0.608620896364 -1.493608577420 1.313375423485
0.577778943369 -1.440586982512 1.329910409475
0.600086488761 -1.467065708202 1.348460075261
0.576762123575 -1.440118835885 1.336445758476
0.671002046370 -1.538394540641 1.277095457602
0.688481975747 -1.529736113230 1.232641973417
0.669500196204 -1.562705718418 1.294351688598
0.644779334314 -1.529220920497 1.223136538410
0.681955444616 -1.511893414175 1.264349436819
0.675090113275 -1.561340799214 1.247515856752
0.668765306188 -1.518757120151 1.285837706286
0.700662950288 -1.528513597148 1.305803646098
0.631433720959 -1.545052851299 1.326730999355
0.710419650039 -1.476929566013 1.276963482876
0.671857216474 -1.575350383841 1.315476318046
0.628742673725 -1.621813064525 1.072410069731
0.605759929021 -1.605536198464 1.060566392680
0.645551027203 -1.562159236498 1.055250681287
0.656276072604 -1.575788664904 1.101453454314
0.653606546367 -1.599919641269 1.045442422918
0.639082961593 -1.638645377610 1.099495781542
0.671586335925 -1.590410377318 1.081779915681
0.594526024713 -1.654245092455 1.053202892932
0.629881494780 -1.613158112636 1.047109029065
0.604546885868 -1.586208195169 1.058341552750
0.660565245511 -1.604603934884 1.094551809081
0.655429318339 -1.499561113767 1.207043697777
0.689585589096 -1.520715789074 1.220837782174
0.667922655920 -1.521347903889 1.233105347209
0.662251907605 -1.541798446774 1.185321165038
0.673260562761 -1.510615245455 1.221577024209
0.632465823320 -1.578965404122 1.220479812338
0.650175218167 -1.550465947067 1.161926599507
0.648833580109 -1.550095724822 1.201430095851
0.691746459434 -1.481830580164 1.164087717177
0.651169198043 -1.503092548220 1.142021604084
0.654895864745 -1.579694149384 1.156089472155
0.677175444116 -1.445254239499 1.315762883361
0.692271750563 -1.424345202779 1.314394437898
0.709443532896 -1.381812052439 1.316002986305
0.701798390167 -1.418698523727 1.341538398561
0.697468920951 -1.449228847718 1.337896086559
0.694186137059 -1.407560282506 1.377452994137
0.668388478697 -1.456321571133 1.309613442587
0.640736526065 -1.419838772731 1.333984134250
0.668092625290 -1.398331407306 1.323475089546
0.625835064798 -1.366374508615 1.304497409820
0.734755181487 -1.403723619632 1.316919813471
0.726892272383 -1.415979700077 1.298281836364
0.662182844618 -1.404098324982 1.312748599833
0.740317795578 -1.468963191408 1.347273691671
0.730250175898 -1.413675192592 1.280466568703
0.737519371348 -1.435971755384 1.268513376095
0.713110387239 -1.455510026079 1.226492814236
0.769352789095 -1.450228873536 1.317119534896
0.736764113061 -1.460864350181 1.273927007933
0.767239501586 -1.420289376771 1.302298881617
0.706356546803 -1.450567713757 1.277729397060
0.764575479730 -1.491062750155 1.271730769557
0.712751749903 -1.471421097353 1.287720734447
0.719270479195 -1.478046953110 1.257059168772
0.739478716731 -1.465093188468 1.321687036370
0.710253564638 -1.536990103245 1.069020302479
0.692733324840 -1.490449153516 1.085876955562
0.662009452113 -1.543820579302 1.069240423755
0.642212095063 -1.518564863372 1.069888102048
0.671836002107 -1.518016748169 1.044698809329
0.735342071146 -1.477019265360 1.088581334604
0.689701018967 -1.547790453562 1.079293480254
0.689901427804 -1.513921109727 1.098054035578
0.673370930100 -1.551243603626 1.035301356373
0.654524139991 -1.533084724513 1.093084328608
0.684554192791 -1.525690696445 1.069635328634
0.730183342198 -1.492736639147 1.094675492380
0.728396389771 -1.462001582367 1.133946233562
0.755291355473 -1.403985564356 1.165044953563
0.726524223473 -1.481498946088 1.175316528125
0.705497535395 -1.442842187815 1.188152460108
0.728139014900 -1.445804599975 1.150365122067
0.743606664527 -1.461129492424 1.099100675682
0.749803000947 -1.446990373237 1.232922032203
0.705011964876 -1.482708332061 1.232055910778
0.754838760236 -1.480904973622 1.215681250626
0.752754957115 -1.446260301810 1.130634430413
0.746594080522 -1.429711684631 1.171560451967
0.719369950514 -1.468279933988 1.173834182805
0.761476686987 -1.438952516079 1.238005320481
0.801714042761 -1.444853651845 1.256633574346
0.868452676808 -1.397192022687 1.307205541062
0.841152338478 -1.398887679273 1.337318141847
0.804298667864 -1.418622078964 1.321336527259
0.832175559112 -1.379381245612 1.275479159527
0.833623313679 -1.365371578112 1.280848613081
0.787225155970 -1.394060148197 1.230072589426
0.797144049713 -1.391205906818 1.276833274570
0.866327892129 -1.383195655845 1.273095425781
0.827876870956 -1.431932477426 1.259831507147
0.829195313709 -1.398617072063 1.281946789869
0.800390094487 -1.404399387618 1.341968363535
0.805268627727 -1.412642714983 1.259630027373
0.891035454136 -1.350772089122 1.316233289068
0.752751141303 -1.447125873444 1.018614312657
0.758515677909 -1.393915910609 1.087984471534
0.769876610546 -1.464824265112 1.128341543649
0.694818525255 -1.478905261541 1.014855833891
0.710105750888 -1.463620854749 1.061250471211
0.716792600147 -1.448191920130 1.016761772906
0.801477147352 -1.427947153977 1.075878107840
0.741831039353 -1.474096542304 1.000081391822
0.753721666731 -1.443772982627 1.060907615271
0.808087277862 -1.470265884855 1.074036035438
0.722008095427 -1.438356516713 1.062454546367
0.783434566913 -1.398115478723 1.098720621213
0.814355794842 -1.373724725387 1.168322904010
0.850586971509 -1.387095064155 1.167612755987
0.862989412757 -1.394628524614 1.112865722357
0.873708287982 -1.399630515569 1.209095743233
0.785108440393 -1.393747040410 1.184949059542
0.798865987772 -1.417201153966 1.184236576704
0.830089708379 -1.397228214947 1.196962773288
0.843460273312 -1.399817259150 1.157119272204
0.907409779968 -1.374346360742 1.184579358197
0.832981556132 -1.405847405445 1.168396432370
0.834173377188 -1.384265736014 1.225950825139
0.840476163198 -1.396633497522 1.198908502404
0.823834011417 -1.392153632268 1.150209426419
0.755024860418 -1.296517609259 1.308650867914
0.778272411550 -1.303957162648 1.331850831118
0.759808479487 -1.395082383967 1.327473674725
0.763003659456 -1.324296240273 1.326935741144
0.771314789868 -1.366926236632 1.356425153830
0.778805692156 -1.349483009070 1.341843877927
0.808906412532 -1.292627063181 1.315488234352
0.771169525056 -1.384992370835 1.337823288512
0.755600658338 -1.357046748251 1.286341364804
0.802516239005 -1.329364510553 1.322634295827
0.784276440338 -1.364646577169 1.345461308654
0.842261725739 -1.297403059942 1.315183262183
0.719790794433 -1.269591007786 1.299079681995
0.734673989901 -1.308621738989 1.326407260614
0.797310279491 -1.336497161980 1.313839906292
0.712380169675 -1.355521812998 1.334831789204
0.780529924662 -1.398366329255 1.284894632456
0.818495505782 -1.264317396408 1.332677931694
0.755756323751 -1.377345301226 1.316269395057
0.796477303001 -1.333257070062 1.280334363646
0.956857471913 -1.336625802740 1.318607915695
1.034752010257 -1.339535381612 1.290342337530
1.008472376469 -1.343940135636 1.276943997119
0.979737013945 -1.370078181211 1.265302676489
0.984737918658 -1.353100990015 1.254971111154
0.959986898676 -1.372139126905 1.284223588254
0.980457435443 -1.374478414362 1.292535151476
1.013950616413 -1.368032250505 1.301377895359
0.964686358702 -1.360768290266 1.269560174010
1.012269850312 -1.325050778660 1.320875039666
0.913877223822 -1.373221906355 1.269678254414
0.955335245924 -1.378017482911 1.313727884805
0.831935331631 -1.395632761597 1.091986166256
0.860592921500 -1.380068167693 1.035885283633
0.845620144239 -1.386429726099 1.024891464980
0.811711528759 -1.405682295789 1.060019744547
0.872868205857 -1.391223160598 1.041645766638
0.817830404032 -1.412818443380 1.054597199495
0.846590990423 -1.394106164724 1.071896784268
0.809940551543 -1.409351223941 1.023240221659
0.846170751414 -1.335024919864 1.099448062136
0.859655000167 -1.390905062932 1.091912579929
0.811867973300 -1.395408075960 1.031200376660
0.885208075455 -1.337432109214 1.051373776013
0.830335980185 -1.371737392516 1.050008995560
0.834914171227 -1.403585348997 0.935764935693
0.871966282307 -1.384501228544 0.982031163740
0.832453384500 -1.409671725686 0.931838579228
0.851949535917 -1.399044912133 0.979057350570
0.856133825992 -1.387422443657 0.963953061863
0.851391914518 -1.367705560729 0.992645666551
0.804362603261 -1.375130000885 0.909410404833
0.835033455568 -1.377601916161 0.892008541939
0.812371931278 -1.401679313535 0.984738331065
0.853568287604 -1.424697107234 0.984498288611
0.817474847594 -1.408803109692 0.930177860830
0.817526213946 -1.388894063012 0.975756905321
0.766141243263 -1.456445187408 1.011632337969
0.718072030324 -1.445568654862 0.938530049546
0.809289659087 -1.416754345530 0.945331519293
0.744641394074 -1.447021969729 0.937165799127
0.746623601806 -1.434016319468 0.948798215984
0.777348401665 -1.453258487556 0.895590249530
0.760183356979 -1.450629700233 1.021771247670
0.765825002375 -1.440624564856 0.955739607314
0.761074381841 -1.472127229391 0.937834866948
0.722293758811 -1.473997017627 0.926202990580
0.754344796211 -1.488036737653 0.978224707814
0.758763497794 -1.442999839083 0.951042113023
0.836174387621 -1.375790185032 0.851881085630
0.828659530784 -1.415860877990 0.886031744780
0.831530584703 -1.407149568801 0.863743240027
0.817320742586 -1.397146943855 0.791354870180
0.832243877046 -1.419989965838 0.860120169521
0.856153814982 -1.351371555029 0.854468191639
0.839880435171 -1.404073291092 0.855061255219
0.880032860187 -1.381449541553 0.847680958780
0.913961888525 -1.384264245797 0.880111924005
0.828565275955 -1.383818223140 0.839663900927
0.860371732139 -1.371935480729 0.795439482793
0.860220025751 -1.440027896630 0.823964689434
0.862965057437 -1.399831921147 0.813652536154
0.788957308182 -1.437160404686 0.902765723562
0.726930277394 -1.449086997278 0.851932483276
0.759829920153 -1.454939917627 0.809249250094
0.722463390015 -1.442214499494 0.820580444202
0.785558441682 -1.408240884558 0.873852435548
0.771988928950 -1.422687851617 0.851773822488
0.817471017926 -1.431772166465 0.860461328364
0.737392589961 -1.472177827331 0.759182533046
0.785810494509 -1.386457197698 0.866279316106
0.742843569586 -1.449738379118 0.810817976705
0.721756982984 -1.446310708214 0.768053432643
0.745571468691 -1.451272014567 0.865870814247
0.640767247262 -1.562141754566 0.916391138669
0.664048507012 -1.541386870670 0.994838542956
0.670265818736 -1.528536025519 0.940962757627
0.700179580943 -1.501224006058 0.960781412883
0.649986959675 -1.551640541951 1.026030960534
0.665367358017 -1.545058297445 0.949319485710
0.663136982671 -1.572430023930 0.914399497207
0.683966701417 -1.540636687519 1.005698596443
0.663720316127 -1.483505594992 0.995789491373
0.675751476051 -1.524282333741 0.999813728285
0.665348199676 -1.518913809122 0.932030598555
0.665770518949 -1.517064680790 0.975222633433
0.689048709008 -1.515469729946 0.856432052471
0.709258386270 -1.533601633901 0.847857971759
0.652492874080 -1.555670410291 0.822923001338
0.653576298102 -1.552684333616 0.826005846121
0.666874370965 -1.529079368513 0.855941618899
0.716489222845 -1.495715359087 0.912178968219
0.688732956918 -1.544949599013 0.854385784892
0.688758853249 -1.546610175184 0.850550005452
0.668557724203 -1.525559762891 0.905529839654
0.662468457569 -1.532018718758 0.872800047100
0.680777803449 -1.506939778842 0.801881262761
0.651004623953 -1.507993485616 0.830471073930
0.887112520112 -1.342898230692 0.778701956404
0.812519803567 -1.412019420551 0.705145917943
0.832631103295 -1.422446694629 0.743671536023
0.799188579675 -1.410202219551 0.703170177927
0.792720816600 -1.362816285349 0.666224263407
0.821552716521 -1.406392866723 0.751002486895
0.893873276042 -1.343058550159 0.766651712126
0.814345567249 -1.359587177060 0.750330703422
0.830977924024 -1.366034407990 0.728290344565
0.825911432288 -1.393682168396 0.773448111462
0.897931753116 -1.400775522359 0.736012607720
0.852746096969 -1.390706394298 0.727964583983
0.747393805676 -1.447168116459 0.742537065734
0.764467005952 -1.440106879020 0.766261868884
0.767488861329 -1.424678735692 0.757537299073
0.740665596274 -1.436240006178 0.704019649153
0.799700472620 -1.421161524565 0.707543144228
0.754677753653 -1.423588980300 0.756182545820
0.806290843343 -1.380231101579 0.798883515896
0.750022071419 -1.409243193311 0.743343068626
0.694964120995 -1.467052877132 0.681661029287
0.747294789854 -1.447763153171 0.690157017783
0.752172392502 -1.399971835514 0.698469871825
0.725793509719 -1.456464346080 0.726275831860
0.652719819794 -1.587782668018 0.871660652443
0.600416274142 -1.617277190443 0.812430739410
0.649938539201 -1.654751968715 0.875374395935
0.613978629397 -1.667962843056 0.878272036949
0.624909645821 -1.666317332921 0.882791546480
0.661906298962 -1.603351026939 0.845896719912
0.633758735867 -1.596540477158 0.871173182843
0.625866886561 -1.612227651581 0.845799087721
0.649666577192 -1.554220186830 0.859291732715
0.606290191103 -1.655215885525 0.807556093860
0.647167854930 -1.571773578519 0.870280646117
0.618646867100 -1.618435326992 0.816073252596
0.667057744890 -1.563044557801 0.752383183027
0.698106743766 -1.483904610872 0.780135338071
0.687718698969 -1.505702381667 0.728678213523
0.651373110263 -1.540310370911 0.759282273685
0.627334185912 -1.538018624609 0.707475259903
0.680432422119 -1.497158648160 0.724396623830
0.685393003765 -1.534142525085 0.719754991243
0.705498004459 -1.511611021604 0.796626940479
0.645255539925 -1.549867572818 0.746810749235
0.668125440766 -1.538811076645 0.762008786934
0.669537744875 -1.498519582635 0.688137908086
0.703438636762 -1.464804115907 0.753403797580
0.864668903348 -1.406189851835 0.636777214962
0.873130889325 -1.402080504645 0.582945654331
0.869225559204 -1.381833505178 0.676833598563
0.877476700552 -1.363960825339 0.621408073622
0.890927980525 -1.351547464434 0.672144453073
0.836536534138 -1.428324976761 0.635704731677
0.838413536471 -1.386118835636 0.571499004665
0.887182602987 -1.380413633495 0.649972551113
0.856357192303 -1.361859343146 0.612741430052
0.830023409613 -1.415645575188 0.577110185041
0.819203389493 -1.402278495031 0.642615716483
0.819337808466 -1.449284518883 0.525313269177
0.618705971636 -1.639480927695 0.755940434475
0.621911410138 -1.636055761100 0.752268691522
0.626823507126 -1.674027518152 0.777007122041
0.653373845858 -1.631386648828 0.714949655789
0.617588396240 -1.637580946619 0.668159283232
0.626351763403 -1.573487380726 0.748213967807
0.647274023549 -1.603758318156 0.755032392271
0.632873083385 -1.601983203810 0.750034983896
0.632436825650 -1.624779961725 0.671166461553
0.641319973601 -1.633827557867 0.743287943038
0.623870024099 -1.597334801294 0.757751066344
0.624304905644 -1.637982868714 0.724866628283
0.643517781224 -1.601283300073 0.625150398839
0.610992378419 -1.610046558675 0.594363198443
0.616506563302 -1.651195556789 0.590415425257
0.581778544505 -1.614911682152 0.620765456947
0.645116466243 -1.626067175714 0.650419829005
0.654833408563 -1.606844335072 0.595289110653
0.637984457010 -1.600339775052 0.645065652643
0.646763972817 -1.608118050020 0.644982490018
0.597455197298 -1.630137271485 0.643454391218
0.595874479963 -1.658521434591 0.682993705507
0.647630952552 -1.553234273296 0.675973114728
0.672117759756 -1.550708022651 0.612364868591
0.691965966192 -1.511420172945 0.649744745231
0.720193263734 -1.503869993126 0.637962926342
0.715865352355 -1.501570949409 0.616438421039
0.677432032581 -1.511129252677 0.630885711745
0.678403011356 -1.491665839479 0.707835231563
0.664778287838 -1.508622613718 0.622767356781
0.684448826954 -1.499979905910 0.682127133969
0.649579441177 -1.551588779700 0.619298913796
0.660325019717 -1.583924940942 0.590443338090
0.681520819001 -1.490843834106 0.660480621489
0.659128480743 -1.536443605793 0.642786414721
0.759108450669 -1.448043187983 0.637342115434
0.743937284743 -1.427912324785 0.622669157193
0.759750970310 -1.461066745157 0.547188720660
0.734576394121 -1.447138296311 0.662013362646
0.742619843095 -1.472594297437 0.637450732881
0.741439917285 -1.454048005454 0.608629525644
0.774909599314 -1.458408816898 0.581995814352
0.819835991452 -1.420363077764 0.666195142622
0.766278671204 -1.441043313954 0.646320132336
0.752043234788 -1.466602546725 0.628101102846
0.707071492830 -1.425852664061 0.609722124909
0.806600691195 -1.416767204794 0.664879130180
0.770795782876 -1.432462882472 0.656467884691
0.613893979885 -1.700512830869 0.604539606796
0.635948514174 -1.767992187290 0.595764950846
0.610210519600 -1.751596752888 0.584786777031
0.617408130473 -1.634188380813 0.635880133723
0.622574436337 -1.733830576279 0.684507623033
0.656426971656 -1.699564699611 0.654431308151
0.596505842825 -1.735500461023 0.673129109695
0.588642185215 -1.685279136692 0.649366051542
0.594208841479 -1.637147185515 0.660233832031
0.649532401985 -1.702512040051 0.626801285427
0.612807368381 -1.740786451921 0.640382309913
0.588529467196 -1.694750932349 0.521137326362
