-0.213928214833 0.389825676281 0.374058759553
-0.180985439300 0.442028077421 0.343316456887
-0.231252677822 0.423529766270 0.434271920450
-0.128503171376 0.417916359289 0.375544705293
-0.289897487976 -0.492237476519 0.411194012283
-0.286800398958 -0.470007454923 0.370543578977
-0.297928769272 -0.550038288148 0.387066105117
-0.294426645423 -0.482594046848 0.366011543318
-0.149619073728 -0.519831039611 0.368882637735
-0.272334445047 -0.565646893041 0.407749343692
-0.247012733945 -0.609333592475 0.370378177838
-0.203127418937 -0.610616709563 0.319705094836
-0.227899938511 -0.564611717320 0.440162768740
-0.227611607285 -0.563282769783 0.341421747231
-0.298055342861 -0.550322411321 0.347137340988
-0.237396621851 -0.610155244037 0.344704009158
-0.253518366356 -0.581699432539 -0.009587019688
-0.246294231105 -0.549439368602 -0.038300038227
-0.201103915391 -0.539674619734 -0.056268790291
-0.227193959929 -0.641896230334 0.050927140212
-0.246291417363 -0.581123866825 -0.005481458569
-0.226761444693 -0.582012271824 -0.060437411019
-0.276419384867 -0.477564796341 0.069988993886
-0.245986962069 -0.762925499758 0.037346224758
-0.153754682807 -0.692774342433 0.021879393224
-0.136745177805 -0.634676055116 -0.068660162548
-0.272843411411 -0.681396215288 0.002831927028
-0.162829854200 -0.694860293564 -0.016066203262
-0.245085423041 -0.615571830887 -0.005182091049
-0.240363232186 -0.631759611567 0.054309534883
-0.285846102391 -0.346726157058 -0.012956160068
-0.353994278676 -0.323775135496 0.038941085087
-0.350897685041 -0.308981568319 -0.035307292978
-0.408868848574 -0.360626942483 -0.014871547841
-0.413946230082 -0.352032762498 0.085911847717
-0.380287973866 -0.316686356704 -0.009034033943
-0.142547128411 -0.718388202233 0.097175724797
-0.200855773944 -0.767870200960 0.007245263679
-0.212445582894 -0.791102450761 -0.045228117144
-0.199481845756 -0.712756298008 -0.025452557106
-0.147831231401 -0.675626635023 -0.016078349344
-0.178769313901 -0.774571336411 -0.036993064251
-0.171657744527 -0.808455780973 -0.014451742941
-0.102001843019 -0.793199901943 0.016137354662
-0.116209504669 -0.777383565063 0.033579338396
-0.170655517324 -0.667237326511 0.322946010564
-0.206785367535 -0.636590295459 0.428069737475
-0.267774432800 -0.623025110862 0.359731482554
-0.231608041149 -0.652589080174 0.382674011153
-0.241798996767 -0.678448315055 0.342173391195
-0.191384369304 -0.639098121600 0.445352263304
-0.187847097158 -0.665454230048 0.383991015396
-0.406690955345 -0.255110950716 -0.024971692251
-0.341861122571 -0.248239992389 0.029060745666
-0.379439565143 -0.170073061744 0.020362025844
-0.489389136591 -0.157336711779 -0.015723140266
-0.491350990091 -0.256599421783 -0.026053184111
-0.463744725402 -0.174568803492 0.000239018150
-0.386931623116 -0.256387010427 -0.029565916682
-0.410532029750 -0.137369747686 -0.030132658173
-0.506388942092 -0.193284609055 -0.033307330759
-0.413472024972 -0.241803488762 -0.037520595128
-0.422573838927 -0.120957289000 0.022439713328
-0.439582501037 -0.111790871483 0.038379823155
-0.426489895283 -0.109535680070 -0.015764038253
-0.405296375826 -0.099332594133 0.020848016167
-0.512291480375 -0.144647360109 -0.034837826476
2.036374127939 -0.888315061303 -0.010710188649
2.016629476093 -0.901860157356 -0.057746491283
2.121515193122 -0.945956724796 0.021708862799
2.112321376138 -0.882756005657 0.036026334852
2.087364369841 -0.900106272819 -0.032367164323
2.114149090099 -0.908372450358 -0.052930483258
2.117089154570 -0.969265276771 -0.035748094020
2.108477710461 -0.950301174750 0.021358430896
2.069470713359 -0.916736554351 0.031395020520
2.066812362566 -1.002619025012 -0.005204208724
1.968436522043 -0.218018319625 -0.062812895531
1.925938680332 -0.195488050403 0.000713719580
1.903208553626 -0.316692008244 0.019051681032
1.906740287115 -0.154685771486 -0.052373928733
1.996238579256 -0.249339164287 -0.036588942905
1.983557099476 -0.243579006709 0.020772057023
1.894216705036 -0.160587412716 0.029626500854
1.990117105061 -0.125022051323 -0.003295677642
1.961130959413 -0.163419246338 -0.015800117036
1.969353916514 -0.221016746352 -0.015890466674
2.042157655605 -0.180717716908 0.036698037496
1.991601030061 -0.172657210264 0.105437986013
1.855936737861 -0.174829992477 -0.010253332329
1.882306847587 -0.140553692417 0.116701302316
2.003892815123 -0.183589411674 0.012045509015
2.036150132356 -0.200907302694 0.065015641716
2.041784009170 -0.191182113647 0.081947618682
1.985240522885 -0.136019488808 0.031978094936
1.873438853082 -0.041278285379 0.014948351893
1.801428864246 -0.128777720200 0.002114168926
1.854890021795 -0.030046602767 0.008613976856
1.834361415217 -0.020082150032 0.055112184502
1.761074222859 -0.032451244047 0.001533711993
1.890331409234 -0.020424280470 0.094519043419
1.825299261383 0.047223255066 -0.001225131294
1.801070728742 0.018441618919 0.024162836555
1.856674701276 0.043658850914 0.024481887219
1.833573655756 0.074453365469 0.066591463812
1.465198648168 0.415115432003 -0.006475129441
1.498411372179 0.508240335674 0.001666618643
1.483101490154 0.480250726496 0.064088972637
1.531398575045 0.401257874954 0.059607295735
1.530127682703 0.450423425910 -0.066374268890
1.704062777742 0.466963778900 -0.009863957767
1.728442088017 0.381609458557 -0.015473273381
1.643418284484 0.437216182745 -0.048186971033
1.755038470183 0.480604754357 -0.024849389992
1.719671238560 0.549607334200 -0.027756126264
1.700795384883 0.494248280623 0.007411294870
1.452122985079 0.543969120428 -0.002203720772
1.434828661501 0.492599096072 -0.011599411269
1.366887302718 0.466271130958 0.030621024054
1.430686876528 0.468689758999 0.008388249114
1.830326313775 0.395766033306 0.320066924186
1.831167879664 0.440373724330 0.319418017800
1.790810067225 0.510781417674 0.380423699035
1.754974126357 0.470411157627 0.353131508870
1.791951466956 0.321728058966 0.330788026244
1.784506046134 0.528409928163 0.332665132398
1.813934706121 0.414843173679 0.376358795785
1.794583969025 0.394565439633 0.394472448514
1.822899242750 0.393239237618 0.375996619341
1.908768357178 0.423074910560 0.394578139542
1.823651309418 0.423668865723 0.372856300616
1.766635014403 0.422415799761 0.426711380884
1.767640116440 0.367479800618 0.394826169599
1.802760906945 0.483173682280 -0.046511519007
1.796166616409 0.468049766241 0.039781788504
1.792459039581 0.522688182116 0.004552036829
1.778228720189 0.438074026560 0.023407820753
2.057763780004 0.153546458295 0.038826507579
2.028217363336 0.150417553446 -0.010723149520
2.012766634104 0.202703345622 0.073670949808
2.116666083753 0.148694598275 -0.013779962399
2.112974312897 0.137012305074 0.030479854165
2.075402878163 0.186093839352 0.010487954690
1.887940548559 0.097777029680 0.018576533535
1.933632698105 0.178477291563 -0.004973099126
1.971612015501 0.223355432408 0.009477562171
1.876703716990 0.200983209362 0.017104176393
1.941616178929 0.219019510079 0.057756791610
2.155798893965 0.029391048812 0.297159143144
2.242196945599 0.074205600056 0.344361252936
2.216521246702 0.057077517514 0.332908129391
2.230888932392 0.012881795260 0.300809399791
2.170499296101 -0.050810074420 0.394042861042
2.195652450946 -0.061935329679 0.349002426901
2.434859506720 -0.016747044769 0.372755741495
2.465760426144 -0.022280018920 0.387510845845
2.371306553509 -0.054116856461 0.429243313879
2.453312807183 -0.046220712935 0.357418752237
2.526639185011 -0.037892077533 0.442028149585
2.473685638809 0.044613422256 0.404130905420
2.443581201263 -0.054360097441 0.382577706954
2.402577523348 0.124685476665 0.410195096394
2.485973282498 0.062086066207 0.337558319438
2.387634946745 0.075912600413 0.365086628992
2.410120968523 0.017788404699 0.378519387402
2.495197972261 0.085783697695 0.338500250426
2.508460028560 0.150177764346 0.364895743598
2.352537034788 -0.000188055666 0.440845274832
2.426697452918 0.122816933363 0.370851213853
2.391563968919 0.236534591439 0.370839490477
2.395730578537 0.129798247827 0.418778940272
2.389740480088 0.152622491439 0.386383143216
2.483374333508 0.203979944256 0.352624991917
2.384756745515 0.203347966705 0.367977948306
2.360770472719 0.134259231635 0.408816725673
2.486665750435 0.156291204801 0.328122120083
2.362324692596 0.100164795316 0.347181945363
2.202630242651 -0.026499888220 -0.014858682186
2.171007631135 -0.033469601508 0.013852243321
2.134871047220 -0.001557708158 0.053497392257
2.139954889161 -0.113976020365 0.015321829019
2.122781050902 -0.068371693491 0.040588521634
2.143520996163 -0.113375114558 0.074656477928
2.166735121155 -0.069352661440 0.001272436325
2.187263201925 -0.624613102380 0.015651208284
2.235963339421 -0.618288077289 -0.019915307370
2.238778996798 -0.709898461759 -0.047557104084
2.213485425005 -0.602195685024 0.028487995824
2.292451563906 -0.608127028492 -0.044512682670
2.167915446477 -0.632806823554 0.032147846114
2.188536319190 -0.557409779658 0.046742360592
2.231170971248 -0.634137068134 -0.006954851440
2.127621682299 -0.691582934556 0.019409170969
2.183766406170 -0.763140912595 -0.037384184907
2.183387709231 -0.739569229961 0.030263706304
2.107349413929 -0.814625742163 0.006938401740
2.097431274196 -0.709771645093 0.013351341769
2.179807186892 -0.769980374757 -0.018348538842
2.123526585816 -0.722264539079 0.030934225797
2.086169877899 -0.708908318400 -0.059130245848
2.057575555286 -0.675612587552 0.028390023917
0.079454567398 -1.336488428777 0.374658366761
0.031254012281 -1.277109514630 0.360487094605
0.034553675115 -1.328301726858 0.348029736347
0.092152505964 -1.274761227583 0.454990240326
0.069064471640 -1.330373095058 0.322950404994
0.100547571862 -1.275809373376 0.328581816922
0.134975747782 -1.325470689593 0.371840994792
0.145969334308 -1.359634940154 0.343514453823
0.070730883466 -1.311529833302 0.393337374904
0.017181070918 -1.282822037633 0.379833893828
0.127602118352 -1.301790412138 0.387732007703
0.100481802127 -1.239755454237 0.404961162787
0.136198141762 -1.283533563036 0.350109973102
0.072151323001 -1.222677659350 0.350056283989
-0.001874624390 -1.236956037948 0.435145357822
0.092263570994 -1.145866279173 0.301202169973
0.006869832430 -1.170108841394 0.368670673734
0.067488602457 -1.281821375074 0.382261143423
0.064542206327 -1.089791345633 0.340054743599
-0.002180058382 -1.169490189937 0.335144145020
0.062942106229 -1.175021762134 0.435329136301
0.046848174590 -1.180705874296 0.390668849381
0.078987309110 -1.172208615337 0.354280416684
-0.034699203476 -1.172012992963 0.413253842468
0.035215575196 -1.119882601323 0.307937875638
1.126699165089 -1.012120736718 0.361326888193
1.156147377761 -0.901949628088 0.450320295704
1.113121076548 -0.955093384853 0.473812543438
1.141641522986 -0.958120601707 0.401369203122
1.091073088913 -0.945631888704 0.485124087418
1.228139481771 -0.885207913599 0.428012626498
1.123924729221 -0.962485681696 0.381592961498
1.096500083260 -0.957548378553 0.404168956665
1.155489251379 -1.004805258759 0.409012905623
1.128495048381 -0.923355259595 0.439681601696
1.146540739176 -0.931839697275 0.442967362104
1.189201185543 -0.979088486512 0.392933100730
1.148478674234 -0.919925881698 0.379749404764
1.199300536329 -0.992143789236 0.458747421322
1.201559044943 -0.956479360323 0.370443388581
1.274067399800 -0.948408504833 0.375872478964
1.266985247572 -0.890524825082 0.375454689026
1.194578420663 -0.996349100724 0.416297968822
1.184874262066 -1.025526921267 0.357440888528
1.198376702725 -0.929951900989 0.393751047658
1.242503404111 -0.931772138528 0.403699107464
1.243742727861 -0.872561179138 0.380198916718
1.237389448401 -0.952974656008 0.359789241850
1.206995428918 -0.988886072585 0.370624479995
1.204627606980 -0.949453864475 0.375961223831
1.320958774688 -0.977985641638 0.378181145614
1.250071352334 -0.964974880172 0.396086095381
1.231222221765 -0.759434648250 0.395779114713
1.223483860990 -0.664746814562 0.462644259031
1.212862203132 -0.698547013569 0.412029082448
1.194278218994 -0.670501623757 0.374015794655
1.266369488521 -0.709496034365 0.348530231728
1.215588882349 -0.627171176124 0.389420713028
1.210735912531 -0.610127003250 0.372792883357
1.217874816401 -0.627730585450 0.423032657837
1.223309752593 -0.680603668757 0.416730415591
1.282700312881 -0.748158193568 0.385850174642
1.400412115698 -1.140912935525 0.319115511139
1.280098760762 -1.082000424347 0.360929423999
1.387698916420 -1.141709340682 0.372598506536
1.464843498206 -1.156529828077 0.321198642294
1.397668297858 -1.194221645191 0.304628608068
1.396342350611 -1.239861500354 0.305374501210
1.371131855861 -1.201232281057 0.378992525962
1.393736885378 -1.194865881059 0.361509668230
1.332848181820 -1.113444272616 0.390953750544
1.390419354539 -1.062094692383 0.401100267176
1.352426873352 -1.172440730129 0.336518465776
1.441061416809 -1.163505681426 0.354418261866
1.367115166269 -1.086379717978 0.325447475783
1.341361264615 -1.075787706841 0.383940740887
1.369900776389 -1.090086372668 0.407207748273
1.367370249634 -1.187688989346 0.346083854975
0.813310329698 -0.392723252290 0.785634638767
0.819030479678 -0.243968462250 0.853006381787
0.866385309064 -0.456249135403 0.823101115044
0.893295546938 -0.362092308338 0.893409923473
0.804206390924 -0.270525931945 0.811404734856
0.850435995829 -0.368645742490 0.887720909823
0.861609678949 -0.418581515592 0.772033746745
0.789295630136 -0.401291037942 0.872175002050
0.801213777534 -0.338152264083 0.857178594603
1.151884490457 0.354076980483 0.397997578216
1.138750654576 0.344872563188 0.353269478056
1.131161863249 0.418011260516 0.366282771047
1.206283529488 0.477518702232 0.407488597606
1.126019057836 0.464367179894 0.397696423335
1.162592397239 0.422666056774 0.357392112062
0.820474409274 0.226157196015 0.433150661819
0.849121860083 0.316435700503 0.456172454027
0.861544811791 0.328094645498 0.526605940179
0.871036673096 0.234860596671 0.467130031309
0.751909708130 0.510573062092 0.345557406519
0.888752595403 0.486992585390 0.379266259392
0.835306475999 0.409965886447 0.321572200691
0.816444329666 0.376476104736 0.320481328761
0.781168360182 0.471656731849 0.344869601382
0.758314070679 0.475813147367 0.356290536119
0.764423256460 0.261864081794 0.356125192566
0.851350955533 0.308746108665 0.379047536450
0.760936954256 0.290027408922 0.317695378149
0.778434326815 0.232149310616 0.399606310437
0.815588181620 0.277706502512 0.390456279178
0.828017351647 0.172578871532 0.644938077581
0.840768318136 0.151954499792 0.578869505733
0.876241715915 0.124114347338 0.605762014906
0.860300639110 0.127840096840 0.596051187120
0.828517785994 0.108666318403 0.584123377470
0.211117537516 -0.053786190551 0.348659906378
0.168860149243 -0.105736929340 0.389316478678
0.190438945475 -0.099948716906 0.395482757468
0.242201023084 -0.035373650192 0.379938041557
0.192430608498 -0.055491697202 0.389347536347
0.175084594201 -0.133951404793 0.399642230968
0.145698049736 -0.145716456619 0.289718882457
2.144485059213 -0.123094178910 -0.037676433112
2.176622566136 -0.081163082140 0.042820598735
2.252791405755 -0.066917865356 -0.054782352336
2.022135748118 0.184603290229 0.283540454073
2.113576475723 0.120694639708 0.269635044679
2.143053490149 0.063891752779 0.397808802226
1.996456774280 0.231091281464 0.363324341570
1.993617782216 0.224123139329 0.438760389448
1.980454529869 0.180219478849 0.448682991624
1.866454822195 0.107512758940 0.358242833985
1.809784830834 0.139365194510 0.397330476657
1.787240582793 0.188647619250 0.382155898957
1.815840430287 -0.003046813401 0.359540119925
1.800858406236 -0.093706100274 0.376214682680
1.902250768365 -0.157389209070 0.452459713998
1.913962907512 -0.116276417958 0.370926686674
1.900772686658 -0.172312011031 0.319823852789
1.930133129791 -0.227870552330 0.439033634868
1.994937900806 -0.162982842895 0.399496938537
2.031885873968 -0.208539679973 0.364357188011
2.033721568599 -0.162576559228 0.314751842326
2.208753017390 -0.124717599221 0.368659811610
2.142298023063 -0.171858672462 0.354284082242
1.413806436629 0.471687678673 0.411716084135
1.382220766377 0.510393275758 0.409893460809
1.356011534386 0.481128535955 0.414763390894
1.465354883865 0.400584193629 0.388984523380
1.337500944371 0.430931098123 0.377338153828
1.353740119270 0.465427945089 0.413212583325
1.471599536235 0.426547476787 0.340214318215
1.517501238858 0.417559152758 0.371683570073
1.539613744749 0.426797002757 0.398161991255
1.564794633174 0.478180736458 0.307115552444
1.508672892468 0.435958473955 0.351709133711
1.541049230045 0.455541496103 0.373411177892
1.502022573916 0.435394220747 0.399976789579
0.449833591738 -1.361762292352 0.443642969227
0.354187810355 -1.274837269834 0.401172991209
0.474828983907 -1.275343844922 0.392009814356
0.434243239505 -1.274313349178 0.282449896598
0.475254470547 -1.364382670023 0.368181743641
0.384842086954 -1.365003078799 0.399545900529
0.323646383924 -1.504391558363 0.344895215009
0.343225310387 -1.479607876912 0.367218616548
0.361009719198 -1.416288735059 0.370396916580
0.262967488986 -1.461661581209 0.388824561934
0.306860174197 -1.587678298996 0.379559440613
0.291787956495 -1.585799442644 0.416546005178
0.277763525496 -1.637301071699 0.372392241361
0.276889855372 -1.535967760498 0.358651296785
0.273825176433 -1.620221149041 0.390684988610
0.342578157661 -1.605461559954 0.319294396299
0.353607226487 -1.653559889107 0.331878825691
0.326458289202 -1.542691466997 0.360811443277
-0.080287390125 -0.176331099828 0.079420854382
0.024369470196 -0.196329866581 0.008972291531
-0.012113525690 -0.204718133234 -0.033052896719
0.080139942193 -0.136137271252 0.038406597748
-0.001496159559 -0.091342595651 0.106609242724
0.098510424473 -0.200114265312 0.078401907633
-0.263842756943 -0.019653281733 -0.010123841150
-0.246375203695 0.010207130113 -0.024871579469
-0.148264100653 -0.211479801082 0.343174320740
-0.124218398563 -0.197776386134 0.348927781448
-0.189006125121 -0.181695708988 0.377181485723
-0.210486732531 0.014788104210 0.360738095044
-0.273826076651 -0.064840737276 0.356920142627
-0.211500488894 0.098615140851 0.348811907852
-0.181377382596 0.053904299223 0.387922415863
-0.260517896128 0.072002764274 0.432461175161
-0.131573505886 0.097536135546 0.364314167478
-0.207335166599 0.132180490041 0.423739761339
-0.429938173371 0.016173193505 0.379370036412
-0.481069245951 0.043951701030 0.344801664263
-0.409556587820 0.078471212360 0.372293696727
-0.456018757115 0.158628992435 0.385815309583
-0.402413868232 0.060437321340 0.317584881614
-0.427196627463 0.117647690619 0.424016174446
-0.468654858374 0.043845158620 0.445522869384
-0.367140925608 0.078940444939 0.463817461184
-0.366104200438 0.088724719586 0.353327446458
-0.248966608317 0.389475819297 0.432164282155
-0.337398846087 0.320652297049 0.382472798851
-0.333288787521 0.333870171991 0.365537810087
-0.368194872985 0.388274665325 0.354578525200
-0.286365276402 0.369583610545 0.383625702096
-0.270402108121 0.460706409135 0.368904578771
-0.128442607423 0.137345026504 -0.040387580129
-0.112483557278 0.249728761766 -0.030423593567
-0.029987329213 0.168390290957 0.084144091343
-0.046948252810 0.202021408927 0.031897993098
0.128867211190 0.268194098019 0.367969020607
-0.046311822128 0.203799617431 0.396501095568
-0.129404254505 0.162153940742 0.352576099090
0.005947482718 0.255903514221 0.389794349867
0.165755258257 0.134942643241 0.408034627466
0.182903313521 0.147034192491 0.337685502545
0.325926505205 -0.014633702641 0.414612632113
0.221406294167 -0.037041268910 -0.006612000894
0.227588097359 -0.029529330066 -0.013006858141
0.223607231976 0.087339968295 -0.063949390252
0.176073507271 0.063382886784 0.041642221092
0.211245641940 -0.007492448059 0.070369024959
0.200707005496 0.050181721696 0.040127816551
0.226448130495 0.075976623680 0.020964586479
0.210751426110 0.039223210635 -0.002079386011
0.184261802491 0.136502797224 0.021023182402
0.149791810431 0.067425121245 0.005742315218
0.227915472112 0.113126986058 0.040833470772
0.248256787577 0.119047658398 -0.037317948949
-0.081385901975 0.413810618271 0.328095287696
-0.148956595095 0.432451596610 0.362620610046
-0.137996861710 0.374544466701 0.399532229863
-0.141628019446 0.474035470238 0.386448286358
-0.124090243291 0.464508795129 0.311721613745
-0.096053071162 0.404682063589 0.426877379781
-0.309745159993 -0.260494992705 0.341085501813
-0.413671383575 -0.386573507726 0.372501231387
-0.324386301158 -0.367913777694 0.369864477632
-0.370711642747 -0.354969219458 0.422459585530
-0.397974750638 -0.265526863606 0.423997205317
-0.418445971633 -0.328453018834 0.384487743380
-0.300739877915 -0.451705368049 0.335871183588
-0.254640844625 -0.410800314424 0.303110803341
-0.369759972534 -0.438897248368 0.381840794531
-0.328909423541 -0.322605594801 0.355979850847
-0.276998632939 -0.451490543784 0.331008375034
-0.433581419598 -0.182317238704 0.365385450637
-0.447520940451 -0.282233318129 0.382589948257
-0.286805035516 -0.298058375384 0.391091144970
-0.385996957616 -0.269774819014 0.373193424374
-0.486612138984 -0.203175018935 0.374319860267
-0.372567945422 -0.191364239534 0.338273896785
-0.384626529994 -0.211907556627 0.378343062424
-0.302449472102 -0.393584087863 -0.016215223435
-0.303852069947 -0.402961137003 0.032399693918
-0.334136333348 -0.448179994777 -0.032298565901
-0.330185688291 -0.487519565312 0.066196080819
-0.287472068515 -0.411581024982 -0.021457923546
-0.479859870678 -0.032393074678 0.304076334103
-0.459017704455 -0.139258958763 0.375157693209
-0.418662037261 -0.138288923813 0.311645710142
-0.398340301983 -0.091405031823 0.363783826597
-0.377228158457 -0.167212811786 0.382430300517
-0.460687037500 -0.088108731288 0.325952271481
-0.442030478463 -0.133319050321 0.354982448992
-0.553206136953 -0.062375793073 0.429378050627
1.883311835821 -0.201911156519 0.004412587151
1.929191677846 -0.215803562819 -0.030448571318
1.838783029572 -0.145732051957 -0.017607138953
1.855563611320 -0.146877635470 0.063218383733
1.866169916273 -0.184294088312 -0.024247226995
1.860065324682 -0.075084582478 -0.043400985659
1.838620354874 -0.161592195691 0.031371217885
1.879704095613 -0.142842598773 -0.030818929808
1.801183897719 -0.090749759340 -0.009600169207
1.790269201769 -0.086183208998 0.000483438949
1.780404751082 -0.036920153941 -0.058765934729
1.723210326737 -0.033251904520 -0.027687167780
1.797156424131 -0.085922274893 0.046321983907
2.243752970454 0.088792992820 0.265650015496
2.148275817305 0.080296349043 0.367362366011
2.150233542691 -0.132741852583 -0.023605007299
2.170558415504 -0.172630025287 -0.032361914624
2.120275364226 -0.086309797731 -0.006136327517
2.238380960495 -0.068773104153 0.377933243784
2.242584329435 -0.063098509036 0.350918660879
-0.052009012846 0.167851671396 0.391739578519
1.152708983315 0.225376266190 0.494616523945
1.196609474569 0.150239853141 0.420027306475
1.158338692050 0.184043331958 0.502731526514
1.240549439027 0.232633477487 0.486203624370
0.784954776098 0.130472992772 0.528467570461
0.944295122840 0.157199740026 0.491083535711
0.870414576801 0.121335438987 0.427928364805
0.538030972541 -1.530565958918 -0.016733113377
0.676437794492 -1.462795357734 -0.025681335594
0.521614716969 -1.522399929172 -0.003753702680
0.569601331225 -1.483013300634 0.007868421138
0.638119006461 -1.522489927134 -0.006128329072
0.487648314265 -1.520966797595 0.049312257149
0.533491527175 -1.424130522925 0.007602729602
0.513401788784 -1.458470837082 0.002526236645
0.626795088979 -1.495315897154 -0.021990000382
0.609775886017 -1.526754139003 -0.040907980575
0.571744644534 -1.518544191323 0.061298911212
0.573607577892 -1.445630347080 -0.044128729123
0.616148055502 -1.452945151822 -0.001923017178
0.550552930499 -1.584716061480 -0.030268333737
0.497712493511 -1.526761138748 -0.005577885066
0.489416529696 -1.516241757101 0.038597276588
0.557963341563 -1.606096227767 0.012432424223
0.561755688293 -1.419756900413 -0.022281910315
0.647119438914 -1.483332421789 0.045561356624
0.646227443533 -1.459332510040 0.006714227613
0.535295094638 -1.437586586710 -0.045136815374
0.521378236741 -1.371353043311 0.023936770989
0.522523228944 -1.595897053826 0.073148920963
0.562576084123 -1.610929078892 -0.022869355207
0.518447767433 -1.666048843088 0.007700642645
0.497844180611 -1.617607305229 -0.027717380392
0.447426699839 -1.616009818947 -0.019054012467
0.566373660431 -1.545383828673 -0.053959006735
0.531690207587 -1.612517384410 -0.004104919644
0.574830336707 -1.644722230976 0.015204665441
0.546478652691 -1.598224359051 0.000699817037
0.519800948872 -1.636351341396 -0.015603653107
0.461021904320 -1.496657742996 0.019993018479
0.520511865157 -1.557607607864 -0.026415344908
0.588876402877 -1.571633526302 -0.029482495704
0.491129287724 -1.536653422734 -0.010131062629
0.542439393571 -1.661038045684 0.013697307446
1.695506461167 -1.620056950132 0.415948588218
1.688932604911 -1.652810301349 0.375579194663
1.617596186010 -1.592525700486 0.328545167152
1.734599963947 -1.614294466874 0.326932142223
1.703448466781 -1.652737111123 0.421259868030
1.623106464166 -1.694180342879 0.397959994625
1.768402313762 -1.667520792868 0.354928244168
1.722044834425 -1.740066186575 0.363148964982
1.748033820747 -1.643877569601 0.464597052796
1.784143885822 -1.671662197434 0.395186874717
1.794577039200 -1.702096133989 0.378647794484
1.731158266404 -1.700625423574 0.393167833189
1.750989330511 -1.663743174791 0.331108903834
1.693697858265 -1.632093363766 0.367084806250
1.617435476544 -1.612701175769 0.369884595938
1.679420047177 -1.613920901858 0.309099178421
1.720395396853 -1.584500545036 0.329864430648
2.077232936295 -0.216650291756 0.407686609474
2.137163259174 -0.213560200128 0.359298400044
2.122794030757 -0.184343856926 0.296369792907
2.107679640404 -0.178533638920 0.342508660692
2.146868030948 -0.210111078397 0.378266663252
2.161816253442 -0.124821995808 0.430660922512
0.901400416106 -1.016810827838 1.247001721482
1.024016812150 -0.989852924351 1.197822697209
1.039765614870 -0.932510152618 1.309005928895
1.031100832562 -0.878791884667 1.133434427831
0.926911615353 -1.075327523968 1.221713821075
1.050480635067 -1.111051577048 1.297103878973
0.879947345906 -0.979232567788 1.251889583577
0.945286193140 -1.026136692932 1.277307178551
0.977100125412 -0.907186317913 1.191322386953
1.037212767016 -0.952745875794 1.242731006862
0.978091553594 -1.031667535741 1.259553940165
0.984146308296 -1.037411095928 1.277777957533
0.876959861355 -0.939740142966 1.217069502165
1.009729672706 -0.912233939181 1.195395076498
0.856878417435 -0.944828544566 1.283464717762
0.935911978071 -0.880497466310 1.185284748248
0.996130584938 -0.909349559781 1.184983040743
1.002291967185 -0.990369417719 1.242037016006
0.915827964170 -0.936308136743 1.238006699305
1.031872893997 -1.028460618290 1.318468049953
0.941615899056 -0.996538358264 1.265972648917
0.947322322296 -0.915575803067 1.209362305601
0.990319321646 -0.957097009830 1.257841331006
0.913345973020 -0.988606602819 1.315794074860
0.978780609008 -1.000236452023 1.275049047775
0.934294179129 -0.975403171543 1.276041233567
0.875588500034 -0.918471269837 1.222474118751
1.471396942686 -1.769178323349 -0.023027005207
1.393718352192 -1.730321417199 -0.020825029357
1.429881025924 -1.717581330717 0.011274222574
1.390945308103 -1.684169043814 0.072053329815
1.445357286169 -1.634917604159 -0.020176081018
1.443579229109 -1.657124799658 0.064896532635
1.412705573509 -1.729810018381 0.032442029161
1.373767364874 -1.751233157838 0.028215678902
1.431874982524 -1.769470999722 0.047240382435
1.448328512123 -1.723959769355 0.046122067046
1.475152860777 -1.656606986840 0.053225764224
1.549912388807 -1.692384918417 0.059905718009
1.504774106904 -1.632837010176 -0.009259892499
1.608041785364 -1.670531930538 0.069296379065
1.541829234337 -1.626826873206 0.013683161009
1.524362575107 -1.658360141738 0.016217580291
1.564163319668 -1.736012421452 -0.054761999119
1.620168990771 -1.620651980277 0.036012126851
1.536549426070 -1.762805938051 0.022005852086
1.644022295834 -1.630870834254 0.067913910575
1.511803289187 -1.698955323284 -0.050081158632
1.501751544679 -1.578245710859 -0.056793862831
1.518804918155 -1.663371202450 -0.023628492803
1.545518053667 -1.617696335007 -0.055174380095
1.555468878507 -1.667617170533 0.044292736070
1.576327821093 -1.663337881279 0.028965352127
1.579753647938 -1.624230207050 -0.040890832536
1.618633277805 -1.668470613196 0.010420042102
1.600284710361 -1.670047156526 0.022396028186
1.548572694400 -1.678213075669 0.063885434447
1.586746675367 -1.641443406833 0.051721880560
1.584229661829 -1.625508310450 0.035046277751
1.605459056448 -1.661736390970 0.063493949902
1.613377776071 -1.584131069549 -0.040614867225
1.550225016324 -1.589991803900 -0.019614671454
1.433753501539 -1.559708652427 -0.028032757927
1.481356151882 -1.601138863481 0.004007481085
1.431754746868 -1.594137633858 -0.025932915996
1.426659369595 -1.613494967228 0.083276069407
1.383794002794 -1.650144194226 -0.016174229928
1.391702530904 -1.582897627916 -0.003595684558
1.483894364245 -1.561568470833 0.009532788397
1.297329920905 -1.642688670321 -0.036279603074
1.390021542943 -1.614563244854 -0.024423601934
1.420418863896 -1.657283057512 0.019897384814
1.362920138764 -1.552264345981 -0.026093423313
1.422401721065 -1.540851708912 -0.020835105192
1.026675755450 -0.840599932055 -0.018702035697
0.971028194457 -0.801115036743 -0.010855194906
1.096513444611 -0.808521499564 -0.017096851908
1.054919389433 -0.862616919154 0.059858122384
0.891247056374 -0.719005424675 -0.010189541162
1.110180679401 -0.793727144544 0.044633597041
1.061600333491 -0.830712792307 0.045948052164
1.168533488606 -0.802063799920 -0.019086801614
1.024955773803 -0.714029566650 -0.089621935072
1.085619471907 -0.737787775096 -0.061326596317
0.992178551900 -0.804832460854 -0.056674947145
0.986960365351 -0.800091559724 -0.024297090347
0.930327528730 -0.757769189145 -0.018694043528
0.878052941708 -0.772842437775 0.000377938913
1.050946132211 -0.845913594482 -0.051216908645
1.041811643672 -0.720617036455 -0.017019764856
1.031438609438 -0.792925129821 0.039640563506
1.046815974378 -0.874813937074 -0.099334320956
1.116621864199 -0.759477378779 -0.007614411988
1.028507113977 -0.795749553970 0.058514187686
0.973045080350 -0.857993713415 -0.028989499112
0.924694360640 -0.872876844035 0.042104209715
1.076079950217 -0.807084032013 0.041816500593
0.966802776151 -0.822748909150 0.110357544855
1.006732213852 -0.767364289318 0.008999430573
1.112929181241 -0.795646419398 -0.042426308226
1.009548022381 -0.767818816782 0.039751892937
0.945056332943 -0.791514536290 -0.029875677218
1.634569608438 0.381496440807 0.388938633088
1.607820402841 0.275657301054 0.389878723578
1.687083862689 0.393516572985 0.334302131543
1.557146960229 0.264063985547 0.291477076145
1.635119543560 0.338228471281 0.330883013793
1.625680428988 0.404642276403 0.390531156497
1.679683354460 0.326577240713 0.378917563925
1.650386937679 0.326882083991 0.414208985872
1.730969967137 0.317415476688 0.427940186785
1.771095596446 0.348623398953 0.434080482955
1.726529623351 0.306161281862 0.339168407414
1.680578536473 0.300127098725 0.344345004058
1.675712094486 0.334226326041 0.300741475870
1.778890467608 0.330781443116 0.419436817080
1.689640279465 0.341253281776 0.391039565321
1.704942652155 0.303311628849 0.335287741203
1.738516966430 0.384376656974 0.471653909248
1.759706989947 0.266636630244 0.317029515389
1.134346012177 0.020697360311 0.446805882244
1.135977588557 0.066969291745 0.495195555754
1.179040627737 0.078758201909 0.379800480133
1.104139451617 0.137130410516 0.403456067142
1.179820531318 0.124577214032 0.409439665599
1.170934095397 0.080948618709 0.391615270720
1.111746691200 0.118202586868 0.429060303989
1.137932780451 0.113568253519 0.407348373313
1.087099591764 0.095311448026 0.392393242185
1.211268904447 0.070067539516 0.462032815974
1.144402036081 0.129424937771 0.414126603289
1.149366971074 0.152349331587 0.429098672690
1.102221150791 0.138920668931 0.386915645309
1.224455678071 0.161305816832 0.366788726425
1.140124166609 0.183210445573 0.395172777344
1.129280259647 0.190475171415 0.375120329768
0.386156569039 -2.073353821177 0.330309740305
0.410176936693 -2.063517051322 0.304983965203
0.398701397411 -1.991104214445 0.384659262894
0.402884377363 -1.986564148093 0.372414620055
0.363437659055 -2.014900521148 0.294787252376
0.386560028806 -2.057318480291 0.336419546468
0.373845810997 -2.036141396763 0.214491310589
0.375205802598 -1.993353736066 0.292602218333
0.442883550098 -2.044212970263 0.307424851196
0.367652652802 -1.997511640228 0.466926058104
0.374371765218 -1.992803747164 0.401179923921
0.355213339077 -2.018970079996 0.304931708028
0.345683642864 -2.051349377940 0.389905394230
0.456964315767 -2.017895026331 0.333367360925
0.330416396963 -2.094416170685 0.356081908738
0.366912054078 -2.012752087610 0.286405044213
0.405524764256 -1.944139344861 0.344698931477
0.357257621456 -2.005928221143 0.390605913147
0.466440825058 -2.044559412003 0.287240031067
0.373771266036 -1.963992637924 0.312346385008
0.349361399832 -2.082913087019 0.290562469817
0.384250593797 -2.029657893307 0.403467655252
0.403660795163 -2.069654236754 0.313714183430
0.433781562500 -2.098246035010 0.416606516326
0.364760520195 -1.998976845964 0.386918629511
0.305713743142 -2.065213001047 0.417514514279
0.370197956809 -2.042727900809 0.231036675555
0.374454743495 -2.073278650339 0.355747702844
0.430334499046 -2.040111826015 0.324864892469
0.437231425950 -2.078576180987 0.403985771943
0.349425697953 -1.999649029728 0.345557592539
0.340749082869 -2.001313222480 0.386255495354
0.324248392801 -2.002907414283 0.435220996621
0.337155241513 -2.027058567787 0.433359474274
0.441918074476 -2.041788584059 0.331548894396
0.383342603719 -2.046306338318 0.296927218868
0.393994199686 -2.010910253113 0.243884563809
0.352327141579 -1.989537044306 0.228964252508
0.314138895677 -2.010306156121 0.159668050212
0.367767293645 -2.021770418324 0.137626658804
0.339368124141 -1.938550380155 0.123925199377
0.312358721121 -2.036166687192 0.163710709387
0.354872486054 -1.994753778891 0.157261382903
0.392697458064 -1.961776860984 0.136735444187
0.291041791051 -2.058583016697 0.165771454180
0.385936323111 -2.059302654467 0.194321649757
0.327250372670 -1.933066738208 0.269879729334
0.337350746512 -1.972620438481 0.238842901785
0.371860557257 -2.067489092639 0.221476642674
0.328418296372 -1.878459355981 0.124958579840
0.407424756651 -2.043657531256 0.209777019195
1.015017505958 -1.210239909073 -0.052807638169
1.038245748704 -1.296082366478 0.045830391280
1.087376804508 -1.226469649281 0.034140239677
1.085580488236 -1.256934940184 -0.014496063970
1.093771722411 -1.215128076667 -0.059294710341
1.051156161900 -1.319082558444 -0.070006277614
1.111868259633 -1.347222470764 -0.010861200921
1.107618658789 -1.240465257933 -0.026898053195
0.993388211421 -1.257735834799 -0.014079050031
1.041805829170 -1.308243084843 -0.052980179565
1.054251880671 -1.215929660978 -0.036233933733
0.995150594587 -1.188917468381 0.048524425596
1.095686743428 -1.257135406545 -0.001047716520
1.036715602287 -1.175328701710 0.005012197613
1.010537533408 -1.250920680011 0.010995160876
1.032068050709 -1.132266014859 0.069272166203
1.078625508014 -1.163049491508 0.016368011324
1.131303204114 -1.220695152049 -0.010263534331
1.143118621133 -1.217112371107 -0.026284980556
0.966990279632 -1.282405431968 -0.014039500360
0.862126385711 -1.206542925766 0.069463692596
1.016331797800 -1.188172284541 -0.008680244941
0.985761049282 -1.349843825033 -0.010181925598
0.918645795874 -1.296568352974 -0.031716435681
0.831989271630 -1.258915019390 -0.047033072044
0.986659734419 -1.262301605595 0.017825038420
0.897744540820 -1.196921207112 0.015993524323
0.863881018442 -1.265664646366 -0.045876534920
0.991425757463 -1.226081935493 0.000329463771
1.016242899095 -1.196917086105 -0.016423678777
0.873029401417 -1.222642226252 0.046633739481
0.843543052977 -1.271010070831 0.010366891602
0.874591965170 -1.194643622711 0.010565355503
0.901665955016 -1.188944358072 -0.010169113847
0.861003756189 -1.300356451672 0.033329509789
0.927760687296 -1.199639526441 -0.049137915736
0.965420705767 -1.294557225876 -0.022118950339
0.936823472057 -1.356448246656 0.009119285701
0.908848811699 -1.164632453949 -0.041202579350
0.953260211938 -1.157937049480 0.075234068282
0.922583887884 -1.203475206576 -0.032684077106
0.964180712103 -1.250004709212 -0.034723976482
0.962397679783 -1.135905129964 0.018881219055
0.867652673922 -1.174539414490 -0.025596014663
0.931110263346 -1.267884246265 -0.011258445194
0.970018300613 -1.204895347905 -0.017591751361
0.981794263229 -1.285945936821 0.040227702286
0.967725370227 -1.196108435073 -0.073571448786
0.962805181826 -1.232345664915 0.055985518557
0.995546934948 -1.112144204655 0.005184626311
0.959464183853 -1.209188104499 -0.021847040292
0.906031087424 -1.227592152630 0.060240113706
0.929382364084 -1.267459185367 0.006817878291
0.982193110179 -1.224937328497 0.016741968618
0.943575080442 -1.278046354922 0.015865446334
0.905906866179 -1.250789462755 0.000723749232
0.990279265891 -1.102754882573 -0.010260198820
0.996875959737 -1.254918010667 0.003115809547
0.805729034761 -0.720176982303 0.029168940232
0.861119908142 -0.742791537491 -0.030093232961
0.896792528505 -0.742376864273 0.037601362271
0.849450890226 -0.711559034038 0.029183858184
0.812486193020 -0.635607512130 -0.096672502802
0.882956179686 -0.625620642273 0.071631440944
0.795030744032 -0.610451378089 -0.004667008579
0.856804229371 -0.704082324743 -0.055057467859
0.832766047353 -0.810373681120 -0.010012134028
0.814563763543 -0.741477343078 -0.013720708759
0.741708215650 -0.648214133307 0.037136566643
0.808073090459 -0.638675540759 -0.048682107945
0.899267613426 -0.752533005155 -0.080046741939
0.866329201059 -0.761900321255 0.050112548731
0.878459130660 -0.639236804120 0.051892704479
0.832467976585 -0.750482520456 0.007879575899
0.773245294940 -0.709323987304 0.001837572996
0.913800547738 -0.743628475104 -0.021568265109
0.872080194637 -0.537919308646 0.036768427778
0.867783651935 -0.693883411422 0.038270695616
0.802953292734 -0.737011488526 -0.000522059556
0.820164958202 -0.681692469023 -0.038158528122
0.731011143240 -0.632145885118 -0.013849453386
0.810812882201 -0.681203489119 -0.035181149235
-0.046433942954 -0.242574799061 0.012476649230
-0.111563184073 -0.228416724319 -0.050891093977
-0.011056964238 -0.374364870946 0.026213531263
-0.061090764020 -0.306363145203 0.067458024630
-0.043285742239 -0.281519199055 -0.016187526812
-0.075784114805 -0.271314377345 -0.009391019178
-0.051762417626 -0.293539498448 0.042377107262
-0.034055917851 -0.191121003910 -0.007199513129
0.009808803655 -0.289115735816 0.014088103277
0.042583980529 -0.200165513379 -0.058622629111
-0.047418400276 -0.203861108954 0.002361075394
0.028574465374 -0.201665511113 -0.010701129660
-0.080981702505 -0.224374942531 -0.034032545061
0.133412796095 0.248470484488 0.413705688740
0.261366542281 0.124489358988 0.409930582631
0.326778357946 0.140706592218 0.427314889650
0.195344332465 0.155950831472 0.378586387637
0.186328765474 0.142820192611 0.382353621895
0.202050457219 0.235566950112 0.375036511987
0.158967631932 0.265427182738 0.397555033304
0.196278907541 0.295090839855 0.398676301515
0.174721791383 0.242239009490 0.398288994920
0.202872496174 0.268475792570 0.339872933500
0.197987064873 0.241629907645 0.365859157231
0.214952873302 0.299308362089 0.369999018897
0.204371034602 0.399671315197 0.373622595966
0.207275580731 0.438187058031 0.375954429484
0.292832998899 0.312800923398 0.385594189491
0.240100553895 0.349815749311 0.349972286095
0.184152457424 0.361454526050 0.415634453734
0.193906106389 0.356228538277 0.389096485460
0.289056155053 0.308416495361 0.385790752393
0.250867626826 0.313956356081 0.370773815391
0.240814439012 0.400083831635 0.394386946669
0.272932242818 0.357474276505 0.398994592710
0.266124395974 0.327909092296 0.391809655782
0.323180360411 0.355874947184 0.407030311802
0.280833935780 0.259904283155 0.340769584658
0.282679486648 0.403854440689 0.397242753051
0.347698930827 0.459116105907 0.348309072525
0.300815836956 0.442748765227 0.336675276757
0.304487284131 0.439106033622 0.400949430652
0.337268465747 0.467697047774 0.438822574701
0.228839165380 0.428798190558 0.316156611743
0.198676707937 0.356561655296 0.381209731289
0.258226768880 0.395507454252 0.334855644712
0.235062757235 0.429436888212 0.349416993440
0.303580556426 0.465234251170 0.336656607697
0.298028271834 0.405338607557 0.399909643706
0.264063350564 0.397956603914 0.397364247452
0.877711137821 -0.565270880030 -0.108131984434
0.999757084678 -0.479966707528 -0.074534265881
0.905896452368 -0.436104890974 -0.004517227521
0.905710415876 -0.583051654853 -0.049135894582
1.027476347048 -0.413967157279 -0.024220025272
1.010590782485 -0.468655995087 0.001462251733
1.023186679997 -0.461222270062 0.035181297105
0.884809615952 -0.586097803928 0.024690757129
0.954793282032 -0.474573258732 -0.056870302767
0.913467125668 -0.593294755548 0.032811084952
0.932895378633 -0.541480951101 -0.007680250790
1.022685481842 -0.485817653454 -0.004964051916
0.970476923202 -0.642752089802 -0.017380136999
0.996620879415 -0.501871584142 0.000910168689
0.962036105002 -0.549396387101 0.036148155964
0.925775590574 -0.584897030656 -0.055434633222
1.020736108401 -0.525883134031 -0.003444708410
0.834384067110 -0.599521787226 0.015015578573
0.922403704697 -0.580097089133 -0.068162046605
0.996290287958 -0.558042179709 -0.003627026372
0.924277152413 -0.563317796870 -0.013827496591
1.011490161513 -0.631052757742 0.003178355121
0.929108301262 -0.590026378556 -0.096060360309
0.999652665744 -0.585342566556 0.001108303593
0.992158663824 -0.583902389667 -0.056537239404
1.001648461521 -0.603673959990 -0.048782099052
0.914275084854 -0.456766419260 0.031169731275
1.050626985355 -0.550956533405 0.040057705989
0.932013851271 -0.543346688430 0.038750318725
0.916659297369 -0.541308481800 0.004762497162
0.858129120773 -0.537795615811 0.023184080523
0.972676442266 -0.598605051274 -0.035269435532
0.199750667108 0.157410686604 -0.100796817773
0.137141321526 0.273070275980 0.024574423271
0.091117540712 0.154922568595 -0.015795492698
0.177169962538 0.158129515117 0.051439064959
0.173838165106 0.209059783689 0.054895694011
0.263914053015 0.137989345273 0.007482206049
0.174851181227 0.193078484291 -0.038546505350
0.239607110660 0.187199894406 -0.006489450257
0.152128806878 0.189872226238 -0.021148014775
0.083889737018 0.203342845221 -0.055697738546
0.172800793879 0.208718049301 0.076578167920
0.222154436048 0.180381097593 0.004229743429
0.272383823506 0.296446540106 -0.016622435719
0.247771389166 0.287916088597 -0.002362224387
0.189241230785 0.274653277288 -0.013571181411
0.187121835792 0.231464629520 -0.046403508456
0.164708278022 0.277027912831 -0.029973574767
0.284836544993 0.162866334848 -0.010867179548
0.039373661238 0.135702187924 0.018935877770
0.005442464202 0.183557054998 -0.001518882931
0.024151472533 0.161742716190 0.026711436342
0.084838689504 0.197366090682 -0.021032004163
0.098979509482 0.235685821933 -0.004401223110
0.106053698981 0.249109777478 0.001873452075
0.071999244789 0.219122079169 -0.037186963930
0.065717298422 0.198634115578 -0.007153938884
-0.070246680991 0.184007406943 0.369378817897
-0.115501317517 0.234061305509 0.362971506367
0.042581957590 -0.241259099311 0.345320981886
-0.020938200335 -0.220073284480 0.278276856202
0.006015515202 -0.160764542718 0.368360512065
-0.123516640333 -0.324004932258 0.316933687043
-0.028690329973 -0.382096005458 0.371301757512
-0.019286665605 -0.255637798423 0.449659650485
-0.063937407684 -0.328857504408 0.422579870441
-0.138405977688 -0.235234016007 0.393054036301
-0.107354541749 -0.367026649477 0.376598080121
1.638407407977 -2.004284211663 0.328485519274
1.643603208057 -1.962254690927 0.200839136793
1.590879020794 -1.972650209802 0.305790141405
1.660427945775 -1.864132964636 0.249016501347
1.623806842093 -1.973041871911 0.234320252790
1.675634648900 -2.009885092216 0.291341050787
1.660804168967 -1.961826044579 0.351570323945
1.633970533641 -2.068533125426 0.308914426757
1.691914384624 -1.975926254577 0.341684232720
1.635457629966 -2.066268689930 0.264149188818
1.629125987548 -1.940973511329 0.311088439938
1.641340708494 -1.958981538430 0.235792570658
1.629182925682 -1.938420091348 0.245417301636
1.597444344619 -1.938875701481 0.289333388176
1.644220026620 -1.907311227055 0.228538344221
1.698128332745 -2.067498949837 0.244326577835
1.684268283452 -2.021057958633 0.275345477588
1.628463020723 -2.035450571090 0.245795160025
1.641608887622 -1.964476794781 0.201263756252
1.637823080710 -2.027288934419 0.198737961221
1.651540408945 -2.046433140859 0.319849427890
1.494839150448 -2.099074997258 0.148083860300
1.669856884414 -2.025071822244 0.096339421695
1.610437431885 -2.036006313291 0.059548597962
1.485747553556 -2.113089477237 0.030101358951
1.559926344395 -2.145008289206 0.039424902097
1.586688263168 -2.131658594278 0.037409100124
1.614129190288 -2.105328417707 0.016929608291
1.578233122449 -2.131233595778 -0.010643278410
1.659672742194 -1.973254398181 0.041344572972
1.545633581683 -2.111565005757 0.106056687212
1.675204812849 -2.018936718889 0.000771054489
1.565428778812 -2.164230827326 0.043828979206
1.539732025108 -2.063916796310 0.099624188383
1.587002347638 -2.109062799563 -0.007646447411
1.617933409454 -2.060120592547 0.096087212657
1.595815610584 -2.123873026239 0.194922987566
1.598682877313 -2.042390030117 0.090937326597
1.568255782362 -2.159038047305 0.010498259013
1.679177973091 -2.108502323907 0.120445132249
1.596341829180 -2.084870707077 0.144020516986
1.611400641655 -2.048054511795 0.046398245449
1.647699709018 -2.065751728976 0.038283324441
1.589679079996 -2.087206847226 0.224436039195
1.593042127049 -2.174983364799 0.095838651227
1.680972986128 -2.087858961831 0.219834612583
1.615769816454 -2.134091591758 0.018846701428
1.600973767070 -2.023742391899 0.188564311189
1.544549024869 -2.157375299635 0.094568147475
1.616998792359 -2.147619820238 0.018553280552
1.585393258294 -2.117470396299 0.072761108902
1.610236576886 -2.065574626638 0.209886904977
1.596671640764 -2.072099027914 0.039193091585
1.573290071153 -2.186122465745 0.074633227698
1.496827667388 -2.107340137779 0.075510040711
1.631233811644 -2.105611471224 0.075150058454
1.573316355535 -2.135387297899 0.099201514727
1.577168645352 -2.171117027447 0.147957452840
1.591533252498 -2.050340688672 0.114384363763
1.652444969181 -2.164316813303 0.003135109899
1.565263344895 -2.130084193902 0.012865358122
1.618104934641 -2.046068566745 0.186254010173
1.647850351021 -2.033804623333 0.180417362820
1.627459583415 -2.000283402461 0.057089622072
1.601889272851 -2.063904007244 0.223000602324
1.720765544949 -1.982119075593 0.205667843084
1.610581694238 -1.991875199011 0.098616981239
1.613247614836 -2.043115771444 0.134695348620
1.677112394404 -2.087182121048 0.157009598052
1.682838848663 -1.996919595964 0.077943847617
1.640464351174 -1.955300548610 0.181707244261
1.662182731017 -1.928764086234 0.192486809633
1.615328018101 -2.037959923619 0.119573827497
1.723392920256 -2.011319897845 0.152681202050
1.570945100832 -2.048474617041 0.147137912366
1.590828577319 -1.947577219425 0.083690036745
1.628255205932 -1.933991212607 0.240837925115
1.661646944436 -2.067412930988 0.212766075864
1.642739658613 -2.009380831670 0.068809006145
1.636838443097 -2.070321837700 0.133556951788
1.542339575874 -2.112744576353 0.112472126697
1.673363946173 -1.952490021439 0.148880966734
1.683881440765 -1.938266134780 0.196283858661
1.687429604049 -2.007250857641 0.129903089730
1.644337571769 -2.017533535574 0.133486680122
1.655988160779 -2.094273247522 0.136728837125
1.639275820680 -1.942211346945 0.202805100202
1.599822870357 -1.994175801348 0.130006495675
1.662345103332 -2.071624332790 0.049126424312
1.604005389886 -1.979419669741 0.166149302495
1.586759831060 -2.070613679038 0.098674998477
1.681000280849 -1.983022354568 0.183912949612
1.570194476478 -2.052187433332 0.186921405845
1.537340715205 -1.990831079369 0.181345244634
1.637893272348 -2.026804427450 0.045861910016
1.699124617597 -2.058326391013 0.160744648158
