0.016284 -0.052360 0.094566
0.016710 -0.055564 0.089795
0.016903 -0.048202 0.096405
0.016979 -0.055946 0.091836
0.017151 -0.052278 0.094108
0.017154 -0.054954 0.092977
0.017287 -0.050785 0.095250
0.018145 -0.046954 0.096991
0.018195 -0.054139 0.089735
0.018402 -0.050927 0.094811
0.018715 -0.052145 0.093359
0.018936 -0.048033 0.095503
0.019045 -0.055090 0.091705
0.019440 -0.050981 0.094027
0.019813 -0.055657 0.090168
0.020298 -0.051074 0.093607
0.020911 -0.054635 0.090511
0.020917 -0.044324 0.096166
0.020979 -0.047191 0.095307
0.021020 -0.051139 0.093187
0.021026 -0.043311 0.097299
0.021077 -0.055524 0.089400
0.021227 -0.051891 0.091928
0.021372 -0.047831 0.094413
0.021794 -0.055335 0.090084
0.022399 -0.051264 0.092413
0.022851 -0.040229 0.097392
0.023053 -0.051763 0.091212
0.023304 -0.055425 0.088792
0.023364 -0.043537 0.096095
0.023483 -0.047649 0.093422
0.023560 -0.055518 0.089157
0.024167 -0.040090 0.096691
0.024672 -0.055300 0.088067
0.024903 -0.055630 0.088326
0.025127 -0.043676 0.095037
0.025208 -0.040033 0.096871
0.025394 -0.047605 0.092918
0.025560 -0.051529 0.090501
0.025628 -0.043897 0.094215
0.025636 -0.039981 0.096152
0.025892 -0.051540 0.089939
0.025903 -0.055197 0.087465
0.025944 -0.047434 0.092264
0.025990 -0.055720 0.087648
0.026437 -0.044698 0.093351
0.027037 -0.036439 0.097002
0.027546 -0.055058 0.086653
0.027603 -0.040207 0.095394
0.027674 -0.055886 0.086724
0.027682 -0.043736 0.093367
0.027699 -0.047804 0.091580
0.027791 -0.039788 0.095187
0.027843 -0.051730 0.089168
0.028023 -0.044798 0.092503
0.028178 -0.036322 0.096413
0.028879 -0.055959 0.085847
0.028909 -0.054929 0.085904
0.029108 -0.039668 0.094585
0.029255 -0.043572 0.092511
0.029274 -0.040376 0.094585
0.029407 -0.051910 0.088468
0.029462 -0.047954 0.090552
0.029674 -0.044894 0.091541
0.029914 -0.056041 0.085184
0.030026 -0.036300 0.095757
0.030168 -0.043491 0.092086
0.030257 -0.051951 0.087806
0.030271 -0.054810 0.085206
0.030296 -0.039531 0.093877
0.030407 -0.048019 0.089926
0.030470 -0.032717 0.096525
0.030492 -0.040499 0.093999
0.031113 -0.032586 0.096784
0.031464 -0.036425 0.094983
0.031593 -0.056161 0.084048
0.031718 -0.040567 0.093135
0.031781 -0.043354 0.091375
0.031813 -0.039406 0.093261
0.031903 -0.054665 0.084359
0.031906 -0.048137 0.089007
0.031911 -0.052071 0.086721
0.032012 -0.050987 0.086819
0.032119 -0.032537 0.095672
0.032249 -0.036474 0.094482
0.032386 -0.056210 0.083481
0.032688 -0.045066 0.089776
0.033301 -0.052180 0.085847
0.033415 -0.050845 0.086021
0.033443 -0.048265 0.088092
0.033775 -0.043158 0.090337
0.033898 -0.032787 0.095141
0.033980 -0.045128 0.088928
0.034178 -0.056341 0.082288
0.034206 -0.035708 0.093408
0.034290 -0.036643 0.093340
0.034296 -0.040741 0.091476
0.034375 -0.054423 0.082964
0.034454 -0.048330 0.087402
0.034454 -0.039289 0.091569
0.034492 -0.052251 0.084991
0.034560 -0.033499 0.093901
0.034737 -0.046613 0.087825
0.034740 -0.043052 0.089773
0.034838 -0.050401 0.085209
0.031802 -0.029046 0.097187
0.031835 -0.029300 0.097408
0.033064 -0.028913 0.096572
0.033789 -0.024812 0.097245
0.034165 -0.025422 0.097138
0.034481 -0.029482 0.095828
0.034516 -0.028738 0.095740
0.019674 0.048754 0.096656
0.020718 0.045086 0.097239
0.020966 0.048544 0.095727
0.021611 0.045132 0.096378
0.022358 0.043672 0.096757
0.022443 0.047397 0.094651
0.022778 0.051277 0.092888
0.022794 0.041669 0.097269
0.022810 0.045138 0.095542
0.023404 0.044012 0.095719
0.023543 0.048604 0.093580
0.024001 0.041666 0.096468
0.024407 0.045121 0.094563
0.024857 0.043683 0.094997
0.024873 0.038664 0.097201
0.024928 0.051781 0.090964
0.025061 0.037775 0.097345
0.025088 0.047958 0.092648
0.025402 0.041642 0.095640
0.025633 0.045113 0.093781
0.025800 0.044522 0.093852
0.026001 0.048143 0.092021
0.026244 0.038020 0.096452
0.026647 0.041437 0.094798
0.026933 0.045127 0.092819
0.027195 0.035138 0.097340
0.027203 0.043674 0.093501
0.027339 0.048437 0.090923
0.027494 0.038636 0.095615
0.027849 0.041691 0.093882
0.027960 0.037909 0.095776
0.028023 0.035642 0.096424
0.028407 0.045067 0.091879
0.028571 0.048707 0.089942
0.029020 0.038620 0.094697
0.029105 0.037911 0.094972
0.029443 0.031900 0.097062
0.029579 0.043672 0.091937
0.029590 0.035129 0.095708
0.029590 0.041593 0.093046
0.029680 0.030388 0.097367
0.029715 0.045320 0.091035
0.029979 0.048612 0.089299
0.030143 0.033290 0.096021
0.030184 0.038797 0.093710
0.030214 0.041636 0.092375
0.030505 0.037884 0.094152
0.030666 0.049198 0.088035
0.030740 0.045563 0.090073
0.030761 0.049217 0.087961
0.030990 0.030568 0.096928
0.031416 0.028475 0.097043
0.031448 0.049696 0.097193
0.031475 0.033342 0.095315
0.031633 0.035067 0.094615
0.031644 0.039045 0.092961
0.031669 0.043639 0.090811
0.031993 0.026004 0.097334
0.032067 0.041595 0.091337
0.032159 0.049500 0.086999
0.032173 0.048942 0.087315
0.032222 0.045846 0.089144
0.032230 0.036451 0.093571
0.032266 0.030851 0.095776
0.032293 0.028625 0.096539
0.032415 0.039233 0.092179
0.032601 0.051348 0.095776
0.032723 0.033748 0.094498
0.032737 0.035042 0.093967
0.032895 0.043666 0.089773
0.033446 0.049756 0.086135
0.033505 0.048636 0.086806
0.033579 0.036699 0.092746
0.033661 0.048263 0.096751
0.033683 0.031099 0.094945
0.033759 0.041533 0.090528
0.033851 0.045048 0.088590
0.033857 0.039514 0.091204
0.034059 0.025036 0.096869
0.034116 0.050672 0.095095
0.034146 0.035004 0.093195
0.034151 0.028483 0.095618
0.034151 0.042988 0.089193
0.034290 0.037843 0.091740
0.034364 0.047950 0.096433
0.034413 0.051781 0.094021
0.034484 0.046350 0.087225
0.034495 0.026434 0.095860
0.034500 0.025047 0.096490
0.034503 0.033287 0.093618
0.034503 0.046846 0.096539
0.034505 0.050032 0.084980
0.034773 0.031331 0.094040
0.034805 0.041555 0.089680
0.015565 0.069838 0.096566
0.015571 0.075024 0.096269
0.015611 0.071198 0.096648
0.015630 0.077803 0.096490
0.015715 0.067544 0.096956
0.015914 0.063639 0.097234
0.016189 0.075032 0.095528
0.016260 0.071359 0.095324
0.016265 0.059086 0.097234
0.016284 0.077160 0.094784
0.016339 0.069969 0.095487
0.016383 0.067618 0.095487
0.016595 0.076912 0.094097
0.016636 0.064552 0.095476
0.016671 0.063836 0.095642
0.016707 0.056402 0.097384
0.016715 0.079007 0.093732
0.016914 0.074176 0.093533
0.017050 0.070138 0.093378
0.017075 0.071593 0.093476
0.017227 0.067849 0.093640
0.017290 0.060089 0.095588
0.017325 0.059192 0.095760
0.017535 0.076122 0.091939
0.017617 0.064716 0.093615
0.017658 0.064032 0.093898
0.017748 0.071800 0.091871
0.017759 0.056514 0.096078
0.017767 0.078005 0.091065
0.017769 0.073468 0.091591
0.017838 0.070269 0.091907
0.017851 0.067980 0.092492
0.017876 0.073378 0.091348
0.017952 0.075656 0.090836
0.017966 0.077860 0.090653
0.017990 0.064781 0.092898
0.018034 0.052585 0.097016
0.018034 0.059274 0.094710
0.018222 0.070351 0.091056
0.018238 0.064163 0.092784
0.018254 0.071920 0.090860
0.018344 0.056607 0.095185
0.018620 0.068105 0.091304
0.018827 0.060329 0.093239
0.018835 0.075890 0.088942
0.018876 0.075157 0.089214
0.018881 0.059345 0.093637
0.018892 0.053816 0.095588
0.018968 0.064926 0.091184
0.018985 0.072130 0.089214
0.019050 0.052696 0.095724
0.019050 0.064312 0.091419
0.019099 0.070511 0.089299
0.019448 0.068313 0.089607
0.019459 0.056716 0.093855
0.019639 0.078462 0.086926
0.019674 0.060449 0.092026
0.019693 0.076144 0.086945
0.019778 0.065010 0.090048
0.019832 0.059443 0.092302
0.019881 0.072313 0.087607
0.020012 0.070650 0.087689
0.020034 0.068441 0.088498
0.020050 0.052729 0.094893
0.020056 0.076220 0.086280
0.020178 0.064443 0.089972
0.020219 0.072394 0.086928
0.020364 0.056814 0.092719
0.020579 0.077768 0.084975
0.020598 0.070746 0.086615
0.020718 0.076430 0.084661
0.020723 0.060536 0.090863
0.020734 0.053909 0.093705
0.020791 0.065103 0.088724
0.020933 0.068615 0.086947
0.021148 0.056933 0.091541
0.021211 0.072645 0.084871
0.021287 0.059536 0.090683
0.021298 0.052824 0.093533
0.021532 0.076318 0.082836
0.021587 0.070882 0.084983
0.021617 0.065187 0.087599
0.021868 0.060686 0.089291
0.022077 0.059598 0.089727
0.022091 0.068773 0.085321
0.022192 0.072836 0.083173
0.022197 0.076836 0.081411
0.022216 0.076430 0.081582
0.022227 0.068789 0.085149
0.022255 0.052873 0.092645
0.022437 0.065258 0.086555
0.022541 0.056969 0.090438
0.022631 0.060705 0.088686
0.022652 0.078269 0.080795
0.022674 0.068912 0.084168
0.022753 0.059642 0.088969
0.023056 0.076569 0.080037
0.023121 0.052974 0.091514
0.023170 0.071081 0.082533
0.023290 0.054669 0.090877
0.023298 0.074574 0.096005
0.023481 0.076631 0.095476
0.023530 0.072514 0.095667
0.023549 0.069048 0.082846
0.023552 0.057056 0.089299
0.023590 0.065372 0.084988
0.023601 0.073097 0.080811
0.023614 0.054814 0.090122
0.023764 0.060830 0.087253
0.023889 0.069705 0.095721
0.023947 0.076732 0.078266
0.023977 0.078501 0.093901
0.024026 0.075125 0.094315
0.024067 0.073174 0.080086
0.024072 0.058544 0.087691
0.024157 0.067942 0.095108
0.024178 0.066135 0.095667
0.024227 0.072481 0.094313
0.024383 0.076651 0.093471
0.024445 0.073242 0.079462
0.024453 0.076800 0.077451
0.024462 0.069552 0.096839
0.024467 0.069155 0.081664
0.024587 0.060901 0.086334
0.024617 0.072062 0.095304
0.024655 0.069471 0.095555
0.024674 0.074661 0.095103
0.024674 0.078721 0.094918
0.024704 0.063661 0.096858
0.024718 0.057102 0.088299
0.024726 0.065032 0.083765
0.024917 0.078642 0.091759
0.024952 0.071299 0.079814
0.024955 0.076920 0.095029
0.024960 0.076269 0.092108
0.024993 0.078588 0.093291
0.025001 0.074078 0.094288
0.025058 0.069498 0.093133
0.025088 0.055149 0.088896
0.025167 0.061844 0.097310
0.025173 0.068266 0.093585
0.025197 0.076915 0.076152
0.025216 0.066176 0.095190
0.025225 0.058838 0.086522
0.025263 0.073397 0.078067
0.025345 0.072018 0.093422
0.025399 0.063195 0.095760
0.025415 0.069302 0.080236
0.025432 0.074302 0.091574
0.025470 0.077539 0.075345
0.025481 0.068416 0.095076
0.025492 0.065533 0.082618
0.025527 0.076103 0.093700
0.025688 0.071642 0.091449
0.025696 0.053004 0.089653
0.025745 0.061021 0.084906
0.025830 0.071408 0.078468
0.025835 0.065966 0.093130
0.025876 0.064157 0.093672
0.025928 0.068342 0.092032
0.025971 0.069171 0.091506
0.025993 0.062302 0.083871
0.026012 0.057173 0.087056
0.026075 0.059048 0.085694
0.026105 0.055386 0.087996
0.026118 0.073588 0.076440
0.026135 0.077059 0.074487
0.026143 0.077724 0.073857
0.026216 0.073618 0.089937
0.026219 0.061002 0.096125
0.026241 0.075656 0.089359
0.026241 0.078615 0.088868
0.026372 0.062405 0.083440
0.026440 0.069454 0.078732
0.026500 0.059596 0.095948
0.026503 0.065757 0.092116
0.026636 0.065214 0.081528
0.026642 0.078672 0.090694
0.026644 0.077781 0.073228
0.026666 0.067204 0.093242
0.026699 0.071501 0.077239
0.026712 0.071013 0.091086
0.026729 0.077141 0.073528
0.026783 0.073642 0.075716
0.026890 0.056255 0.097223
0.026933 0.065261 0.093005
0.027001 0.054111 0.088179
0.027015 0.060446 0.095383
0.027018 0.057222 0.086144
0.027031 0.074269 0.090808
0.027094 0.071457 0.089095
0.027124 0.076577 0.088683
0.027154 0.069541 0.077786
0.027206 0.077847 0.089343
0.027216 0.061051 0.083808
0.027255 0.073525 0.089201
0.027282 0.059353 0.084484
0.027293 0.059361 0.095353
0.027304 0.066634 0.079451
0.027372 0.070250 0.090828
0.027385 0.067599 0.091182
0.027391 0.066092 0.091236
0.027456 0.077978 0.071598
0.027464 0.052375 0.088689
0.027467 0.073593 0.087560
0.027470 0.062688 0.082304
0.027494 0.075956 0.086708
0.027533 0.062939 0.093751
0.027617 0.065332 0.080242
0.027623 0.071585 0.076048
0.027707 0.077285 0.071846
0.027778 0.073844 0.073953
0.027811 0.079062 0.086784
0.027843 0.061138 0.082906
0.027887 0.062239 0.093411
0.027906 0.078416 0.085144
0.027917 0.056893 0.096354
0.027947 0.054141 0.087362
0.027993 0.057255 0.085332
0.028018 0.070174 0.089122
0.028045 0.066833 0.078656
0.028056 0.053075 0.087710
0.028236 0.067462 0.089416
0.028293 0.059601 0.083528
0.028331 0.069669 0.076318
0.028405 0.070247 0.087759
0.028473 0.059048 0.094544
0.028492 0.071686 0.074770
0.028541 0.074501 0.085356
0.028557 0.077283 0.084171
0.028563 0.072727 0.087334
0.028565 0.065457 0.078925
0.028590 0.063015 0.080879
0.028715 0.073986 0.072549
0.028778 0.054149 0.086768
0.028808 0.075931 0.086345
0.028870 0.068972 0.089005
0.029039 0.061143 0.082119
0.029105 0.069735 0.075462
0.029105 0.071778 0.073696
0.029184 0.059852 0.082449
0.029249 0.065288 0.090645
0.029271 0.075403 0.085528
0.029282 0.069721 0.087035
0.029312 0.067163 0.077337
0.029326 0.063236 0.079904
0.029402 0.061855 0.092446
0.029413 0.074133 0.071280
0.029524 0.052857 0.086838
0.029573 0.071645 0.086847
0.029582 0.056089 0.095492
0.029590 0.064261 0.090561
0.029598 0.066740 0.089100
0.029734 0.052702 0.097212
0.029745 0.065476 0.078070
0.029748 0.056274 0.084525
0.029764 0.055536 0.095343
0.029862 0.058901 0.093596
0.029870 0.066626 0.088825
0.029881 0.078473 0.081165
0.030020 0.067432 0.076002
0.030042 0.074727 0.084563
0.030067 0.061263 0.080789
0.030067 0.078408 0.082977
0.030097 0.077168 0.082440
0.030132 0.052661 0.096427
0.030192 0.071819 0.085198
0.030222 0.069876 0.073969
0.030252 0.061484 0.091520
0.030317 0.071705 0.072154
0.030331 0.072814 0.083522
0.030345 0.063539 0.078571
0.030465 0.057353 0.083182
0.030489 0.067896 0.087629
0.030601 0.074220 0.083223
0.030710 0.053130 0.085822
0.030737 0.063906 0.089672
0.030740 0.065588 0.076816
0.030805 0.054182 0.085242
0.030841 0.070640 0.085454
0.030843 0.066280 0.087980
0.030917 0.077315 0.080002
0.030952 0.068961 0.086209
0.030966 0.077547 0.081710
0.031031 0.069966 0.072947
0.031059 0.077465 0.081599
0.031222 0.055255 0.094566
0.031252 0.071945 0.071173
0.031309 0.071332 0.084037
0.031383 0.058225 0.092928
0.031533 0.073811 0.082252
0.031541 0.061299 0.079639
0.031661 0.067258 0.086904
0.031663 0.063814 0.077650
0.031666 0.060710 0.091201
0.031702 0.054217 0.084386
0.031764 0.053108 0.085108
0.031802 0.056784 0.082514
0.031813 0.052348 0.095552
0.031832 0.063582 0.088860
0.031843 0.058160 0.092253
0.031849 0.067969 0.073658
0.031903 0.069991 0.084669
0.031922 0.071893 0.082242
0.031925 0.076599 0.080301
0.031958 0.065634 0.075789
0.031990 0.070070 0.071759
0.032067 0.078719 0.078261
0.032069 0.070108 0.083342
0.032140 0.065928 0.087097
0.032170 0.057816 0.092471
0.032225 0.060051 0.080018
0.032238 0.064345 0.087236
0.032312 0.076171 0.078683
0.032334 0.054972 0.093828
0.032364 0.068081 0.084618
0.032456 0.073432 0.081348
0.032465 0.060920 0.090065
0.032505 0.061370 0.078631
0.032541 0.064105 0.076285
0.032603 0.065740 0.074770
0.032669 0.068217 0.072560
0.032830 0.057064 0.081321
0.033001 0.077484 0.076544
0.033004 0.057364 0.091953
0.033012 0.077858 0.076748
0.033129 0.072446 0.081517
0.033178 0.053121 0.084111
0.033214 0.064304 0.075419
0.033249 0.069252 0.083836
0.033347 0.059830 0.090214
0.033448 0.065501 0.086043
0.033467 0.060067 0.079133
0.033489 0.051988 0.094577
0.033508 0.062996 0.088045
0.033557 0.068462 0.071541
0.033628 0.075416 0.078337
0.033658 0.068073 0.084032
0.033663 0.061021 0.077691
0.033772 0.054108 0.093408
0.033775 0.065808 0.073647
0.033909 0.078253 0.076053
0.033950 0.070465 0.081923
0.033958 0.054225 0.082898
0.034015 0.076871 0.075718
0.034064 0.060511 0.089007
0.034143 0.057364 0.080201
0.034159 0.056854 0.091454
0.034252 0.071809 0.080781
0.034326 0.062917 0.087171
0.034407 0.074866 0.078062
0.034456 0.053151 0.083111
0.034614 0.065667 0.085114
0.034696 0.059217 0.089599
0.034726 0.074860 0.076803
0.034745 0.067738 0.083203
0.034822 0.070201 0.081274
0.034868 0.057588 0.079198
0.015658 0.079768 0.096661
0.015729 0.079288 0.096746
0.016061 0.083749 0.095781
0.016167 0.081569 0.095299
0.016276 0.079471 0.095351
0.016276 0.084561 0.095334
0.016366 0.091051 0.096141
0.016418 0.089174 0.095626
0.016453 0.096643 0.097381
0.016699 0.096242 0.096397
0.016748 0.093705 0.095651
0.016857 0.080879 0.093482
0.016898 0.085288 0.093533
0.017017 0.097812 0.095675
0.017064 0.089392 0.093580
0.017094 0.099329 0.095972
0.017096 0.087621 0.093405
0.017107 0.082602 0.092798
0.017369 0.095242 0.093909
0.017385 0.080285 0.091659
0.017437 0.093942 0.093435
0.017456 0.102695 0.095907
0.017462 0.092040 0.092852
0.017557 0.084967 0.091465
0.017581 0.082098 0.091476
0.017584 0.086986 0.091795
0.017682 0.089602 0.091610
0.017690 0.106188 0.096291
0.017693 0.098422 0.093713
0.017731 0.094068 0.092291
0.017797 0.105806 0.096005
0.017849 0.102106 0.094438
0.017859 0.093673 0.092738
0.017862 0.080375 0.090699
0.017936 0.084844 0.090999
0.017996 0.103460 0.095413
0.018017 0.091297 0.090972
0.018020 0.084002 0.090212
0.018034 0.098509 0.093375
0.018058 0.105700 0.095051
0.018080 0.105880 0.095288
0.018143 0.089553 0.090898
0.018235 0.101447 0.092817
0.018260 0.102163 0.093255
0.018383 0.093891 0.091122
0.018391 0.090787 0.089691
0.018402 0.080550 0.089040
0.018402 0.105106 0.093591
0.018511 0.098283 0.091206
0.018576 0.097060 0.090329
0.018622 0.089803 0.089125
0.018630 0.106087 0.093378
0.018633 0.085119 0.088980
0.018663 0.100795 0.091198
0.018696 0.079149 0.088860
0.018769 0.083307 0.088353
0.018881 0.096670 0.089340
0.018898 0.102379 0.091244
0.018979 0.100354 0.090086
0.019004 0.104150 0.091214
0.019028 0.094147 0.089220
0.019154 0.082961 0.087421
0.019186 0.087506 0.087114
0.019214 0.085193 0.087133
0.019225 0.098506 0.089092
0.019293 0.096084 0.087871
0.019295 0.089694 0.086893
0.019344 0.092547 0.087122
0.019353 0.080760 0.086877
0.019423 0.094604 0.087206
0.019467 0.102610 0.089141
0.019674 0.099335 0.087533
0.019680 0.085610 0.085263
0.019775 0.098722 0.087114
0.019813 0.104294 0.089383
0.019838 0.089092 0.085332
0.019914 0.082269 0.085560
0.019928 0.086711 0.085037
0.019941 0.080915 0.085340
0.019947 0.091795 0.085201
0.019952 0.102812 0.087318
0.019968 0.094776 0.085563
0.020034 0.104381 0.088729
0.020056 0.094596 0.085939
0.020067 0.095068 0.085291
0.020146 0.098844 0.085961
0.020195 0.085705 0.084615
0.020216 0.102874 0.086680
0.020249 0.090403 0.084629
0.020265 0.082002 0.084814
0.020268 0.086348 0.084089
0.020271 0.091427 0.084253
0.020279 0.099436 0.086528
0.020421 0.080915 0.084438
0.020429 0.098199 0.084699
0.020562 0.094773 0.084585
0.020710 0.104637 0.086811
0.020816 0.090539 0.082588
0.020819 0.094959 0.083321
0.020827 0.083779 0.083304
0.020827 0.090760 0.082541
0.020846 0.085877 0.082569
0.020868 0.099700 0.084601
0.020955 0.103087 0.084645
0.020966 0.095098 0.082520
0.021080 0.081174 0.082522
0.021175 0.099188 0.082721
0.021184 0.087686 0.081645
0.021222 0.104932 0.084740
0.021350 0.100002 0.082522
0.021434 0.103308 0.082675
0.021584 0.093215 0.080539
0.021598 0.095321 0.080451
0.021622 0.090961 0.080511
0.021661 0.089869 0.080206
0.021671 0.083032 0.081282
0.021707 0.087212 0.080370
0.021778 0.099923 0.080667
0.021802 0.105171 0.082975
0.021846 0.081384 0.080631
0.021879 0.084975 0.080345
0.021990 0.103019 0.080748
0.022097 0.086245 0.078999
0.022110 0.086264 0.078844
0.022151 0.099566 0.079247
0.022156 0.090997 0.078282
0.022173 0.095482 0.078879
0.022197 0.105806 0.080994
0.022249 0.105357 0.081612
0.022339 0.081482 0.079972
0.022366 0.103591 0.079983
0.022383 0.100316 0.080043
0.022511 0.089078 0.078092
0.022546 0.091326 0.077806
0.022620 0.105553 0.080225
0.022647 0.098833 0.077876
0.022674 0.095689 0.077882
0.022712 0.086599 0.077895
0.022750 0.101926 0.077996
0.022813 0.100588 0.078168
0.022887 0.081618 0.078217
0.022947 0.104659 0.078130
0.022998 0.088602 0.076827
0.023124 0.094771 0.075953
0.023195 0.091574 0.075961
0.023276 0.095945 0.075996
0.023290 0.097991 0.075735
0.023418 0.086825 0.076141
0.023445 0.100855 0.076195
0.023505 0.104041 0.075874
0.023677 0.079692 0.078198
0.023682 0.096000 0.074040
0.023707 0.083651 0.076612
0.023761 0.094084 0.074152
0.023780 0.085566 0.075822
0.023780 0.097384 0.074173
0.023786 0.091436 0.073999
0.023887 0.100095 0.074201
0.023889 0.081784 0.076364
0.023936 0.079844 0.096149
0.024015 0.103106 0.074233
0.024039 0.106302 0.074898
0.024045 0.082964 0.095678
0.024097 0.086506 0.095991
0.024110 0.104256 0.073876
0.024159 0.087114 0.074007
0.024323 0.084645 0.096264
0.024328 0.096166 0.072402
0.024358 0.079185 0.095482
0.024358 0.094130 0.096607
0.024383 0.090239 0.095915
0.024385 0.091618 0.072236
0.024388 0.100324 0.072141
0.024394 0.087455 0.073675
0.024413 0.087065 0.097245
0.024426 0.082100 0.075108
0.024445 0.093411 0.072359
0.024467 0.101272 0.073116
0.024519 0.104357 0.072890
0.024633 0.096261 0.071503
0.024696 0.087258 0.095539
0.024726 0.083850 0.095097
0.024759 0.091692 0.071465
0.024759 0.100406 0.071326
0.024781 0.091103 0.095839
0.024783 0.081435 0.095223
0.024797 0.102073 0.071604
0.024909 0.105008 0.071653
0.024993 0.089817 0.071541
0.025031 0.082285 0.073656
0.025031 0.085899 0.095258
0.025088 0.086329 0.094065
0.025154 0.094136 0.095359
0.025173 0.082825 0.093482
0.025203 0.090128 0.095179
0.025227 0.087430 0.071533
0.025249 0.097414 0.096119
0.025369 0.092561 0.093081
0.025424 0.080482 0.093661
0.025467 0.084907 0.093528
0.025470 0.096912 0.095340
0.025481 0.089572 0.093487
0.025503 0.096155 0.093386
0.025513 0.099855 0.096046
0.025522 0.084384 0.072438
0.025614 0.084618 0.091716
0.025652 0.102035 0.096152
0.025729 0.105278 0.095479
0.025813 0.081073 0.091373
0.025857 0.093479 0.093879
0.025873 0.088081 0.091054
0.025892 0.082514 0.071814
0.025906 0.100349 0.093702
0.025909 0.088583 0.091931
0.025947 0.106212 0.096280
0.025952 0.091743 0.091239
0.026075 0.095335 0.091541
0.026088 0.082514 0.088416
0.026121 0.098297 0.093512
0.026206 0.104542 0.093828
0.026238 0.099588 0.092005
0.026355 0.083487 0.091168
0.026369 0.091079 0.089751
0.026429 0.087337 0.089375
0.026432 0.102485 0.093798
0.026459 0.082686 0.070470
0.026481 0.081378 0.087560
0.026497 0.094395 0.091304
0.026519 0.099302 0.091356
0.026524 0.094596 0.089885
0.026554 0.080272 0.089550
0.026582 0.087514 0.090719
0.026587 0.083122 0.090563
0.026590 0.104703 0.094754
0.026612 0.091858 0.091076
0.026614 0.102041 0.093092
0.026620 0.097684 0.092541
0.026647 0.094087 0.090849
0.026677 0.104398 0.093392
0.026821 0.080054 0.089048
0.026944 0.098776 0.090896
0.026958 0.089918 0.088713
0.026993 0.094090 0.088743
0.027023 0.086735 0.089408
0.027129 0.100676 0.090855
0.027137 0.096727 0.090923
0.027143 0.082332 0.089283
0.027157 0.090880 0.089422
0.027282 0.086406 0.087266
0.027375 0.086168 0.088465
0.027377 0.097749 0.089280
0.027415 0.082550 0.087024
0.027503 0.102656 0.091193
0.027508 0.102406 0.089046
0.027524 0.095735 0.089171
0.027552 0.099763 0.089484
0.027587 0.105305 0.090956
0.027718 0.091583 0.086915
0.027729 0.082574 0.084588
0.027873 0.085283 0.086969
0.027876 0.094109 0.086882
0.027928 0.104335 0.089334
0.027930 0.089430 0.086961
0.027944 0.089027 0.085127
0.027985 0.096253 0.086887
0.028023 0.098351 0.087075
0.028042 0.080986 0.087073
0.028206 0.085318 0.084808
0.028208 0.100517 0.087163
0.028298 0.092248 0.084607
0.028361 0.096414 0.084885
0.028372 0.105425 0.086961
0.028426 0.105894 0.088007
0.028440 0.084152 0.082577
0.028462 0.081542 0.084729
0.028462 0.097362 0.085558
0.028543 0.100545 0.084885
0.028549 0.102899 0.087122
0.028573 0.093468 0.085247
0.028622 0.091566 0.083081
0.028663 0.095733 0.083367
0.028699 0.104910 0.085808
0.028715 0.088092 0.084718
0.028718 0.088231 0.083323
0.028729 0.083367 0.081980
0.028753 0.106229 0.088206
0.028775 0.081272 0.084111
0.028781 0.099705 0.086037
0.028830 0.093128 0.084702
0.028890 0.096444 0.084182
0.028920 0.087733 0.084114
0.029034 0.093839 0.083135
0.029056 0.092583 0.083743
0.029140 0.105267 0.086517
0.029151 0.083419 0.083926
0.029181 0.101087 0.084094
0.029211 0.084305 0.082509
0.029236 0.095531 0.082688
0.029315 0.098629 0.084190
0.029405 0.079209 0.084236
0.029445 0.103365 0.084002
0.029511 0.091765 0.082364
0.029541 0.086847 0.082675
0.029552 0.080572 0.082514
0.029563 0.104376 0.084975
0.029573 0.100220 0.082787
0.029658 0.097828 0.082787
0.029740 0.102487 0.082517
0.029778 0.082626 0.082672
0.029838 0.094278 0.080100
0.029876 0.090204 0.080004
0.029884 0.087008 0.080560
0.029898 0.098479 0.080258
0.029960 0.081065 0.080032
0.030034 0.090967 0.081054
0.030058 0.105076 0.082337
0.030135 0.102569 0.080563
0.030151 0.083378 0.080410
0.030364 0.093531 0.078421
0.030377 0.096389 0.080321
0.030418 0.097667 0.078438
0.030421 0.085501 0.080465
0.030421 0.104210 0.080985
0.030484 0.086286 0.078931
0.030497 0.100913 0.080212
0.030576 0.101744 0.078716
0.030593 0.089485 0.078383
0.030693 0.080457 0.078811
0.030792 0.079653 0.078819
0.030816 0.095476 0.078746
0.030824 0.099978 0.078653
0.030879 0.097008 0.076958
0.030884 0.085871 0.077996
0.030906 0.092891 0.076983
0.030917 0.105553 0.078658
0.030920 0.082738 0.078950
0.030971 0.084787 0.079334
0.030974 0.101212 0.079470
0.031064 0.095125 0.078179
0.031159 0.089168 0.078081
0.031173 0.102351 0.078048
0.031197 0.080839 0.079841
0.031249 0.100400 0.078013
0.031301 0.079266 0.079514
0.031317 0.094673 0.077416
0.031372 0.105847 0.079361
0.031375 0.084261 0.078495
0.031377 0.100496 0.075917
0.031410 0.088479 0.076122
0.031445 0.096447 0.075697
0.031500 0.082356 0.078073
0.031508 0.092248 0.075536
0.031590 0.104452 0.076190
0.031751 0.105043 0.077969
0.031808 0.093850 0.076045
0.031892 0.085024 0.076070
0.031925 0.098956 0.075514
0.031952 0.080070 0.078697
0.031958 0.095703 0.074032
0.032012 0.099700 0.074132
0.032097 0.091517 0.073898
0.032127 0.103733 0.074571
0.032146 0.087733 0.075743
0.032277 0.103676 0.075552
0.032345 0.092880 0.074408
0.032399 0.087531 0.073977
0.032445 0.098049 0.073991
0.032475 0.094975 0.072397
0.032538 0.082847 0.076282
0.032563 0.081430 0.075969
0.032702 0.102793 0.074029
0.032734 0.084324 0.074476
0.032756 0.090798 0.072277
0.032805 0.098605 0.071675
0.032811 0.094615 0.071593
0.032816 0.102564 0.071947
0.033029 0.090515 0.071642
0.033050 0.086983 0.072732
0.033059 0.084046 0.073846
0.033113 0.094332 0.070958
0.033140 0.098174 0.070710
0.033165 0.082125 0.075168
0.033178 0.086408 0.073647
0.033266 0.101616 0.071996
0.033279 0.090226 0.070988
0.033402 0.091245 0.071716
0.033424 0.083776 0.073233
0.033465 0.096324 0.071105
0.033478 0.086558 0.071775
0.033492 0.106011 0.070533
0.033535 0.085959 0.072939
0.033560 0.100975 0.070887
0.034053 0.080495 0.073819
0.034233 0.085168 0.071724
0.034366 0.083092 0.071672
0.017914 0.108768 0.096817
0.018116 0.111839 0.097294
0.018271 0.108899 0.095610
0.018497 0.111662 0.095547
0.018878 0.112997 0.095610
0.018887 0.115019 0.095574
0.018952 0.109125 0.093490
0.019053 0.110771 0.093334
0.019235 0.117856 0.095623
0.019260 0.107229 0.091244
0.019339 0.121166 0.095953
0.019342 0.110289 0.092144
0.019347 0.113798 0.093512
0.019429 0.115232 0.093610
0.019513 0.120417 0.095503
0.019532 0.109351 0.091400
0.019644 0.118065 0.093746
0.019753 0.124112 0.095640
0.019810 0.106520 0.089394
0.019810 0.119853 0.094130
0.019862 0.112921 0.091351
0.019865 0.126981 0.096190
0.019884 0.127875 0.096048
0.020007 0.121379 0.093958
0.020009 0.124256 0.094386
0.020023 0.109169 0.089375
0.020023 0.115436 0.091713
0.020064 0.106591 0.088713
0.020086 0.129510 0.097305
0.020165 0.119281 0.092708
0.020178 0.122845 0.094787
0.020208 0.118352 0.093195
0.020225 0.127087 0.095201
0.020328 0.115520 0.090901
0.020331 0.113637 0.090868
0.020423 0.122046 0.092776
0.020560 0.109294 0.088833
0.020565 0.124371 0.093247
0.020581 0.128968 0.095261
0.020601 0.118343 0.091097
0.020614 0.111785 0.088509
0.020628 0.106787 0.086896
0.020666 0.130384 0.095435
0.020707 0.127883 0.093806
0.020805 0.115706 0.089220
0.020892 0.113880 0.089070
0.020900 0.121687 0.091125
0.020933 0.118014 0.089569
0.020952 0.126758 0.093501
0.020977 0.111161 0.086969
0.021031 0.121057 0.090315
0.021034 0.133327 0.095277
0.021137 0.109564 0.086879
0.021146 0.107027 0.084740
0.021184 0.133387 0.093501
0.021225 0.130534 0.093517
0.021252 0.124589 0.091223
0.021293 0.120635 0.089269
0.021317 0.113894 0.086691
0.021317 0.126837 0.091212
0.021391 0.115946 0.087032
0.021413 0.110436 0.085179
0.021413 0.121888 0.089302
0.021453 0.117226 0.087593
0.021568 0.124790 0.089471
0.021573 0.130559 0.091503
0.021701 0.129739 0.091078
0.021756 0.113193 0.084817
0.021767 0.109820 0.084975
0.021789 0.107237 0.082776
0.021862 0.116139 0.085274
0.021936 0.125842 0.088735
0.021947 0.133226 0.091514
0.021982 0.119499 0.086451
0.022001 0.109482 0.082816
0.022083 0.122120 0.087160
0.022099 0.110327 0.082446
0.022148 0.130744 0.089800
0.022197 0.128919 0.089035
0.022206 0.113313 0.083648
0.022206 0.118924 0.085740
0.022211 0.124992 0.087593
0.022225 0.123706 0.088285
0.022233 0.133322 0.090626
0.022235 0.109128 0.081928
0.022255 0.119311 0.086116
0.022257 0.128774 0.088689
0.022285 0.130894 0.090675
0.022304 0.112240 0.082607
0.022323 0.114488 0.084547
0.022325 0.115738 0.083920
0.022364 0.127349 0.088991
0.022385 0.122191 0.086481
0.022552 0.108597 0.080620
0.022560 0.118594 0.084190
0.022565 0.107531 0.080089
0.022617 0.113490 0.082043
0.022628 0.133499 0.089065
0.022663 0.123927 0.086661
0.022680 0.128147 0.087108
0.022707 0.115128 0.082405
0.022712 0.131115 0.089024
0.022868 0.119529 0.084435
0.022898 0.108057 0.079277
0.022963 0.122433 0.084291
0.022979 0.111213 0.080034
0.023007 0.117864 0.082378
0.023020 0.127597 0.087067
0.023102 0.113681 0.080285
0.023159 0.131063 0.086871
0.023235 0.107520 0.077942
0.023246 0.124202 0.084626
0.023249 0.133150 0.086776
0.023271 0.127286 0.084928
0.023364 0.122624 0.082590
0.023410 0.117134 0.080585
0.023415 0.128224 0.084863
0.023464 0.119785 0.082528
0.023483 0.115054 0.080421
0.023511 0.110782 0.078168
0.023636 0.132548 0.085261
0.023642 0.113542 0.078487
0.023723 0.106757 0.076043
0.023731 0.119496 0.080487
0.023734 0.131284 0.084901
0.023802 0.126412 0.082743
0.023819 0.124463 0.082664
0.023895 0.109785 0.076479
0.023993 0.128466 0.082683
0.024001 0.122837 0.080620
0.024061 0.116888 0.078280
0.024075 0.115343 0.078318
0.024094 0.125733 0.080895
0.024097 0.111014 0.076043
0.024225 0.131529 0.082738
0.024233 0.119741 0.078282
0.024282 0.114112 0.076307
0.024342 0.115673 0.076936
0.024364 0.124654 0.081173
0.024369 0.128602 0.081443
0.024404 0.128259 0.082124
0.024426 0.115469 0.077356
0.024481 0.111087 0.075762
0.024516 0.114169 0.075756
0.024516 0.118493 0.077326
0.024522 0.121670 0.078331
0.024560 0.125807 0.080135
0.024595 0.108752 0.073887
0.024636 0.124788 0.080201
0.024666 0.106441 0.073721
0.024688 0.120387 0.078108
0.024721 0.131998 0.082299
0.024764 0.115681 0.075855
0.024879 0.117817 0.075677
0.024892 0.130602 0.080364
0.024922 0.124515 0.078032
0.024939 0.133123 0.080838
0.024958 0.128518 0.080195
0.025067 0.114379 0.073838
0.025107 0.111379 0.073634
0.025132 0.108466 0.071473
0.025173 0.123978 0.076732
0.025184 0.119995 0.075852
0.025186 0.126038 0.078021
0.025200 0.123292 0.076457
0.025320 0.106746 0.071519
0.025424 0.117384 0.073702
0.025454 0.111488 0.071634
0.025456 0.115935 0.073912
0.025636 0.128766 0.078263
0.025647 0.119888 0.073882
0.025658 0.113594 0.071756
0.025731 0.126265 0.075980
0.025737 0.131992 0.078487
0.025857 0.123583 0.073854
0.025930 0.122796 0.073765
0.025933 0.116172 0.071560
0.025947 0.128842 0.075966
0.026020 0.117594 0.071751
0.026020 0.132537 0.078160
0.026195 0.132289 0.075914
0.026200 0.109229 0.095476
0.026203 0.120409 0.072072
0.026222 0.131205 0.075983
0.026290 0.126477 0.074056
0.026328 0.128224 0.074421
0.026383 0.122093 0.072002
0.026489 0.130747 0.074838
0.026530 0.108597 0.094065
0.026552 0.123733 0.072367
0.026557 0.126649 0.072560
0.026565 0.110782 0.095923
0.026576 0.114172 0.097032
0.026582 0.111139 0.096768
0.026603 0.120548 0.070773
0.026631 0.130532 0.074296
0.026644 0.125717 0.073282
0.026652 0.107681 0.094754
0.026658 0.121719 0.071048
0.026791 0.132861 0.075667
0.026816 0.124790 0.071438
0.026865 0.110640 0.095928
0.026941 0.106918 0.093517
0.026949 0.113259 0.095593
0.027050 0.129853 0.072596
0.027053 0.126777 0.071331
0.027064 0.129382 0.073585
0.027075 0.110024 0.094825
0.027263 0.107270 0.091089
0.027274 0.115875 0.095411
0.027282 0.133120 0.073746
0.027426 0.109248 0.093476
0.027481 0.118215 0.095392
0.027497 0.111714 0.093027
0.027519 0.129632 0.071751
0.027595 0.114995 0.093961
0.027625 0.111191 0.091310
0.027775 0.106460 0.089277
0.027783 0.122398 0.095582
0.027821 0.120180 0.095631
0.027832 0.108270 0.091757
0.027857 0.133379 0.071773
0.027868 0.117229 0.093819
0.027898 0.113823 0.093291
0.028007 0.119395 0.094027
0.028020 0.110452 0.089653
0.028097 0.124523 0.095640
0.028140 0.126452 0.095899
0.028184 0.128395 0.096070
0.028230 0.113384 0.091402
0.028246 0.121368 0.094035
0.028396 0.114643 0.089915
0.028426 0.115807 0.091558
0.028440 0.109308 0.089179
0.028511 0.114272 0.089086
0.028565 0.131199 0.095839
0.028593 0.117877 0.091593
0.028612 0.109351 0.087179
0.028707 0.124987 0.093552
0.028712 0.127177 0.094217
0.028712 0.132870 0.096245
0.028740 0.119986 0.091762
0.028759 0.129093 0.094822
0.028764 0.115003 0.090310
0.028810 0.122706 0.092746
0.028838 0.132548 0.095740
0.028841 0.119782 0.091471
0.028906 0.130919 0.095356
0.028930 0.124286 0.093242
0.028952 0.117665 0.091255
0.029012 0.111292 0.088874
0.029012 0.126458 0.093103
0.029050 0.107599 0.086353
0.029097 0.121826 0.091253
0.029184 0.113896 0.088522
0.029238 0.110787 0.087239
0.029342 0.129371 0.093035
0.029407 0.130968 0.093155
0.029465 0.118191 0.088928
0.029473 0.106602 0.084803
0.029481 0.132845 0.093454
0.029497 0.113011 0.087065
0.029497 0.125090 0.090847
0.029557 0.116270 0.088819
0.029609 0.120343 0.088789
0.029614 0.126779 0.091073
0.029625 0.109872 0.086394
0.029740 0.118409 0.086588
0.029759 0.122172 0.088994
0.029838 0.107226 0.082413
0.029876 0.109169 0.084659
0.029900 0.115316 0.087116
0.029928 0.128608 0.091318
0.029939 0.124027 0.089206
0.030007 0.119422 0.087372
0.030020 0.131365 0.091048
0.030034 0.132679 0.091490
0.030050 0.111501 0.084593
0.030058 0.117676 0.084942
0.030197 0.108275 0.083182
0.030203 0.113597 0.084667
0.030260 0.126864 0.088950
0.030290 0.111376 0.082577
0.030301 0.115801 0.084975
0.030361 0.106504 0.080792
0.030369 0.128529 0.089296
0.030484 0.122550 0.086806
0.030541 0.124384 0.087250
0.030560 0.112678 0.083195
0.030582 0.121957 0.084427
0.030587 0.119788 0.085035
0.030614 0.132412 0.089539
0.030625 0.110635 0.080915
0.030639 0.125886 0.087392
0.030661 0.116828 0.083034
0.030672 0.131156 0.089135
0.030718 0.116515 0.082329
0.030887 0.109400 0.081269
0.030909 0.123365 0.085590
0.030914 0.128962 0.087160
0.030930 0.130545 0.088198
0.030941 0.125063 0.086056
0.030988 0.119501 0.084860
0.031009 0.113975 0.082048
0.031059 0.132872 0.088866
0.031069 0.106477 0.080449
0.031069 0.126022 0.086795
0.031072 0.128630 0.086683
0.031102 0.108880 0.080454
0.031203 0.112289 0.081822
0.031225 0.130791 0.086917
0.031282 0.122442 0.084138
0.031285 0.118888 0.083806
0.031287 0.116084 0.082021
0.031448 0.119940 0.082566
0.031456 0.112934 0.080449
0.031568 0.115196 0.080498
0.031593 0.111409 0.080288
0.031612 0.107373 0.077928
0.031617 0.133589 0.086547
0.031661 0.124717 0.084528
0.031666 0.118008 0.082266
0.031683 0.127107 0.084291
0.031691 0.128453 0.084787
0.031865 0.109425 0.078062
0.031868 0.122627 0.082149
0.031936 0.123812 0.080664
0.031936 0.132665 0.085010
0.031947 0.111545 0.078154
0.031977 0.124303 0.082525
0.032023 0.106471 0.076582
0.032029 0.130654 0.084983
0.032061 0.118390 0.080113
0.032072 0.126180 0.082868
0.032129 0.120142 0.080402
0.032198 0.128275 0.082901
0.032260 0.113646 0.078165
0.032274 0.115507 0.078233
0.032298 0.110621 0.076669
0.032345 0.117490 0.078579
0.032432 0.113700 0.076013
0.032549 0.109068 0.076171
0.032552 0.122733 0.078241
0.032601 0.131145 0.082699
0.032603 0.122363 0.080361
0.032636 0.107439 0.073740
0.032751 0.126790 0.080492
0.032802 0.120177 0.078222
0.032805 0.118240 0.076089
0.032898 0.112986 0.074410
0.032906 0.108272 0.074784
0.032960 0.130158 0.081083
0.032963 0.126771 0.078563
0.032985 0.115962 0.076217
0.033034 0.128319 0.080882
0.033045 0.121864 0.076296
0.033086 0.106714 0.072108
0.033105 0.119373 0.076925
0.033108 0.124510 0.078331
0.033127 0.115649 0.075748
0.033127 0.128047 0.080389
0.033225 0.124305 0.078064
0.033257 0.107439 0.073326
0.033296 0.120869 0.077773
0.033309 0.122924 0.077650
0.033315 0.112335 0.072947
0.033326 0.114011 0.075241
0.033342 0.127611 0.079639
0.033429 0.130254 0.078231
0.033574 0.118322 0.075345
0.033601 0.128423 0.078261
0.033614 0.122016 0.076130
0.033634 0.113218 0.073835
0.033647 0.106564 0.071800
0.033655 0.119902 0.076048
0.033745 0.126651 0.077947
0.033756 0.124142 0.076225
0.033770 0.117529 0.073906
0.033786 0.115954 0.073784
0.033876 0.133682 0.079955
0.033930 0.129199 0.075874
0.033960 0.112406 0.072399
0.034010 0.116147 0.071397
0.034181 0.124613 0.073737
0.034200 0.132504 0.076266
0.034208 0.126891 0.075833
0.034225 0.120384 0.073503
0.034236 0.111853 0.071451
0.034244 0.132804 0.078400
0.034274 0.119867 0.071822
0.034440 0.128335 0.073939
0.034467 0.126003 0.074280
0.034489 0.122461 0.073672
0.034514 0.117673 0.071923
0.034549 0.123809 0.071939
0.034576 0.131196 0.075928
0.034737 0.121548 0.072048
0.034827 0.131436 0.073884
0.034857 0.127706 0.072538
0.020977 0.135153 0.095689
0.021083 0.137316 0.095621
0.021473 0.135363 0.093552
0.021494 0.139695 0.095830
0.021538 0.143172 0.095653
0.021655 0.141998 0.095591
0.021723 0.137499 0.093503
0.021794 0.139322 0.093631
0.021914 0.145791 0.095773
0.021998 0.135510 0.091838
0.022009 0.148458 0.095885
0.022058 0.141243 0.093552
0.022124 0.143319 0.094078
0.022154 0.137619 0.092160
0.022200 0.150873 0.096498
0.022230 0.139431 0.092528
0.022235 0.150175 0.096877
0.022265 0.137785 0.092571
0.022290 0.135665 0.091100
0.022361 0.146494 0.095144
0.022402 0.153475 0.097351
0.022508 0.148311 0.095294
0.022609 0.137802 0.091084
0.022644 0.142398 0.092901
0.022655 0.144254 0.093234
0.022685 0.150995 0.095212
0.022726 0.139564 0.091264
0.022786 0.146052 0.093484
0.022876 0.148698 0.093272
0.022884 0.135894 0.089029
0.022960 0.152971 0.095484
0.023001 0.154647 0.095599
0.023045 0.137889 0.088999
0.023083 0.141668 0.091206
0.023113 0.143780 0.091471
0.023140 0.146169 0.091430
0.023241 0.139802 0.089174
0.023252 0.150704 0.093324
0.023266 0.157309 0.095501
0.023271 0.159202 0.095681
0.023410 0.148867 0.091315
0.023413 0.152456 0.093569
0.023473 0.141643 0.089005
0.023494 0.156600 0.093373
0.023530 0.135404 0.086558
0.023606 0.143750 0.089146
0.023617 0.150121 0.091375
0.023682 0.138218 0.087342
0.023731 0.155576 0.093495
0.023830 0.159374 0.093735
0.023832 0.146366 0.089225
0.023854 0.152592 0.091329
0.023876 0.154704 0.091659
0.023941 0.134782 0.084983
0.023944 0.139913 0.086947
0.024007 0.141652 0.087168
0.024105 0.148663 0.089133
0.024162 0.143687 0.087217
0.024184 0.150355 0.089315
0.024279 0.159548 0.091667
0.024287 0.145638 0.087484
0.024290 0.156802 0.091277
0.024293 0.137780 0.084964
0.024355 0.141924 0.085683
0.024372 0.152761 0.089822
0.024377 0.140210 0.085490
0.024383 0.134128 0.083391
0.024402 0.154870 0.090866
0.024404 0.146453 0.088402
0.024410 0.148006 0.088836
0.024413 0.137589 0.084479
0.024456 0.142224 0.086847
0.024527 0.144292 0.086909
0.024557 0.135052 0.084272
0.024568 0.133790 0.082490
0.024641 0.156843 0.090708
0.024647 0.140327 0.084443
0.024701 0.150061 0.088732
0.024778 0.159260 0.091242
0.024824 0.152832 0.088860
0.024827 0.142025 0.084740
0.024835 0.136902 0.082754
0.024860 0.146164 0.086661
0.025037 0.148943 0.086806
0.025045 0.154570 0.088915
0.025091 0.135303 0.082359
0.025107 0.143960 0.084688
0.025203 0.153099 0.086866
0.025244 0.157360 0.088800
0.025285 0.159799 0.089078
0.025325 0.150308 0.086792
0.025394 0.146412 0.084754
0.025456 0.139068 0.082536
0.025494 0.142251 0.082680
0.025494 0.157175 0.087108
0.025522 0.136851 0.080408
0.025549 0.150870 0.084746
0.025587 0.144213 0.082476
0.025625 0.148401 0.084797
0.025655 0.135559 0.080402
0.025674 0.146178 0.082683
0.025691 0.154821 0.086934
0.025718 0.159123 0.086934
0.025764 0.152766 0.084882
0.025881 0.142472 0.080765
0.025895 0.154567 0.084857
0.025900 0.134682 0.078386
0.025936 0.139322 0.080631
0.025974 0.144371 0.081073
0.025988 0.148368 0.082577
0.026146 0.137104 0.078154
0.026219 0.157374 0.084950
0.026236 0.151074 0.082898
0.026260 0.139216 0.078397
0.026274 0.152099 0.082669
0.026306 0.159328 0.085141
0.026347 0.160764 0.085133
0.026464 0.146434 0.080378
0.026464 0.154755 0.082686
0.026481 0.141011 0.078280
0.026508 0.149785 0.081015
0.026513 0.134929 0.076171
0.026530 0.148251 0.080588
0.026552 0.157884 0.083250
0.026595 0.155232 0.083759
0.026603 0.135968 0.077269
0.026623 0.149243 0.081642
0.026633 0.150897 0.082233
0.026639 0.152597 0.082430
0.026661 0.144126 0.079751
0.026723 0.139684 0.077849
0.026731 0.134973 0.075751
0.026756 0.159055 0.084471
0.026775 0.146494 0.079781
0.026851 0.141071 0.077669
0.026933 0.144358 0.078100
0.026963 0.137355 0.075849
0.027004 0.148845 0.080165
0.027091 0.155399 0.082408
0.027118 0.150535 0.080329
0.027170 0.156837 0.082299
0.027211 0.141273 0.075912
0.027227 0.159311 0.082506
0.027247 0.135194 0.073800
0.027312 0.139916 0.076048
0.027317 0.153227 0.080375
0.027388 0.155159 0.080661
0.027435 0.146516 0.077789
0.027492 0.156927 0.080274
0.027503 0.150074 0.077955
0.027522 0.137575 0.073876
0.027522 0.148319 0.078206
0.027565 0.152497 0.078160
0.027642 0.146529 0.076171
0.027734 0.143600 0.076113
0.027753 0.139502 0.073830
0.027778 0.149676 0.076917
0.027813 0.141483 0.074013
0.027816 0.135425 0.071718
0.027840 0.159562 0.080528
0.027911 0.155167 0.078168
0.028028 0.149080 0.076209
0.028078 0.137804 0.071838
0.028159 0.145785 0.074241
0.028203 0.143867 0.074111
0.028206 0.152679 0.076141
0.028241 0.159295 0.078380
0.028304 0.139943 0.071814
0.028304 0.156995 0.078198
0.028366 0.141725 0.071865
0.028448 0.155336 0.076236
0.028489 0.148532 0.073985
0.028500 0.156442 0.076367
0.028658 0.143456 0.071865
0.028663 0.158644 0.076579
0.028718 0.145404 0.071822
0.028718 0.160873 0.077013
0.028726 0.140085 0.070533
0.028729 0.134845 0.096670
0.028734 0.152058 0.074244
0.028753 0.155050 0.075372
0.028772 0.141829 0.070893
0.028775 0.136156 0.097171
0.028775 0.151826 0.075004
0.028783 0.159946 0.077506
0.028813 0.140540 0.071192
0.028911 0.151434 0.073429
0.028914 0.145469 0.071225
0.028944 0.147862 0.073399
0.028990 0.137717 0.097386
0.029042 0.144205 0.071457
0.029075 0.140194 0.097136
0.029091 0.157415 0.075598
0.029099 0.135183 0.095539
0.029132 0.158854 0.075844
0.029222 0.154600 0.073620
0.029255 0.152022 0.073462
0.029345 0.136878 0.095909
0.029399 0.150736 0.071606
0.029462 0.139278 0.095721
0.029500 0.148120 0.071410
0.029541 0.156930 0.073811
0.029740 0.143641 0.095798
0.029781 0.152254 0.071669
0.029808 0.159676 0.073686
0.029819 0.154824 0.071645
0.029928 0.156968 0.071751
0.029939 0.137815 0.093239
0.029979 0.135434 0.093381
0.030023 0.142425 0.095321
0.030129 0.159200 0.071729
0.030176 0.146821 0.095392
0.030323 0.147952 0.095926
0.030339 0.136902 0.091855
0.030361 0.134494 0.091716
0.030410 0.142107 0.093465
0.030497 0.150943 0.095550
0.030557 0.145894 0.093945
0.030655 0.152960 0.095809
0.030674 0.141142 0.091743
0.030726 0.148249 0.093858
0.030737 0.154845 0.095942
0.030835 0.150044 0.094089
0.030884 0.140488 0.091920
0.030922 0.135513 0.089702
0.030922 0.158145 0.096680
0.030925 0.145022 0.092593
0.030930 0.145082 0.092735
0.030933 0.154426 0.095329
0.030969 0.147758 0.093157
0.030996 0.152507 0.094645
0.031004 0.135202 0.089146
0.031069 0.139976 0.090999
0.031094 0.146300 0.093040
0.031255 0.156892 0.095686
0.031356 0.134284 0.087669
0.031366 0.143968 0.090958
0.031429 0.150932 0.093092
0.031432 0.139406 0.089108
0.031459 0.146450 0.091035
0.031462 0.153096 0.093234
0.031505 0.156374 0.093710
0.031546 0.160974 0.095855
0.031604 0.148202 0.091225
0.031742 0.150415 0.091225
0.031748 0.138545 0.088509
0.031751 0.138594 0.087817
0.031778 0.152118 0.091577
0.031841 0.142589 0.088659
0.031862 0.160317 0.094710
0.031879 0.155401 0.093037
0.032023 0.159467 0.093264
0.032039 0.144028 0.089005
0.032113 0.137608 0.086841
0.032148 0.146704 0.088765
0.032157 0.148260 0.089375
0.032217 0.154799 0.091367
0.032233 0.141652 0.087198
0.032290 0.137009 0.085160
0.032317 0.158584 0.091787
0.032383 0.144033 0.087144
0.032445 0.150559 0.089209
0.032492 0.153911 0.089847
0.032571 0.157973 0.090849
0.032636 0.153338 0.088811
0.032661 0.147979 0.087313
0.032663 0.146229 0.087032
0.032723 0.136167 0.084293
0.032751 0.140178 0.084759
0.032813 0.149556 0.087582
0.032876 0.135504 0.082767
0.032955 0.157053 0.089432
0.033020 0.141761 0.085005
0.033048 0.160581 0.089991
0.033056 0.144287 0.084841
0.033069 0.152393 0.087419
0.033091 0.139262 0.083269
0.033105 0.145799 0.085446
0.033113 0.148764 0.086310
0.033132 0.147017 0.086171
0.033140 0.141502 0.084550
0.033173 0.144071 0.084550
0.033206 0.157039 0.088855
0.033247 0.135049 0.082345
0.033334 0.152099 0.087190
0.033456 0.138434 0.082015
0.033465 0.147829 0.084808
0.033492 0.159625 0.088604
0.033554 0.134286 0.080988
0.033582 0.146178 0.084735
0.033590 0.151513 0.086152
0.033601 0.156227 0.087432
0.033609 0.155221 0.086449
0.033729 0.144058 0.082585
0.033732 0.140137 0.082135
0.033800 0.137431 0.080334
0.033876 0.142417 0.081999
0.033928 0.150674 0.084656
0.033963 0.146404 0.082457
0.034053 0.139766 0.080326
0.034149 0.159745 0.086729
0.034200 0.153772 0.084201
0.034263 0.142049 0.080318
0.034298 0.143706 0.080506
0.034312 0.154723 0.084797
0.034320 0.145488 0.081007
0.034320 0.157216 0.084631
0.034345 0.149036 0.082043
0.034356 0.149747 0.083024
0.034432 0.135891 0.077934
0.034514 0.159644 0.084626
0.034571 0.152775 0.082601
0.034713 0.137867 0.078127
0.034770 0.140071 0.078217
0.034775 0.134954 0.076397
0.034778 0.148088 0.080648
0.034808 0.141990 0.078220
0.034862 0.158723 0.083160
0.023663 0.161750 0.095740
0.023674 0.162886 0.095724
0.024105 0.161192 0.093653
0.024121 0.165061 0.095751
0.024364 0.163715 0.093765
0.024505 0.162115 0.092923
0.024546 0.163546 0.093141
0.024740 0.166453 0.095765
0.024821 0.165837 0.093378
0.024909 0.161641 0.091157
0.025077 0.164140 0.091032
0.025429 0.161110 0.089198
0.025464 0.166137 0.091264
0.025519 0.167268 0.095678
0.025535 0.165966 0.097302
0.025565 0.167816 0.091367
0.025568 0.168303 0.093266
0.025590 0.163399 0.089081
0.025794 0.165625 0.089293
0.026189 0.161788 0.086650
0.026197 0.167993 0.089214
0.026216 0.163339 0.087201
0.026320 0.165818 0.087018
0.026388 0.170211 0.090950
0.026402 0.169818 0.089424
0.026437 0.169630 0.092441
0.026464 0.163023 0.085596
0.026533 0.167489 0.087332
0.026576 0.163916 0.086274
0.026712 0.166590 0.096721
0.026761 0.165707 0.086432
0.026840 0.168134 0.086718
0.026911 0.161162 0.084359
0.026969 0.170061 0.086827
0.027099 0.163407 0.084408
0.027222 0.165960 0.084514
0.027293 0.161080 0.082367
0.027334 0.172260 0.086830
0.027358 0.168505 0.094438
0.027522 0.167720 0.084618
0.027527 0.170393 0.091904
0.027541 0.172402 0.084958
0.027573 0.172412 0.089070
0.027623 0.170298 0.084896
0.027691 0.163786 0.082599
0.027704 0.165478 0.082746
0.027772 0.167914 0.095231
0.027778 0.169685 0.092950
0.027835 0.171682 0.090313
0.027903 0.161314 0.080337
0.027909 0.167963 0.082762
0.027944 0.163480 0.080473
0.028048 0.173979 0.086806
0.028086 0.169772 0.082958
0.028197 0.170818 0.089550
0.028233 0.174611 0.084675
0.028246 0.172619 0.082560
0.028358 0.161516 0.078598
0.028375 0.167600 0.080648
0.028388 0.165633 0.080522
0.028519 0.163652 0.078601
0.028530 0.174107 0.082792
0.028674 0.175824 0.084051
0.028685 0.170197 0.080721
0.028729 0.172772 0.080874
0.028737 0.165178 0.078833
0.028748 0.175925 0.082612
0.028756 0.175175 0.082182
0.028781 0.168295 0.080130
0.028821 0.170072 0.080266
0.028876 0.161595 0.077735
0.029018 0.164015 0.078228
0.029029 0.172252 0.080326
0.029110 0.165791 0.078111
0.029214 0.176865 0.082481
0.029252 0.167671 0.078037
0.029268 0.174889 0.080340
0.029334 0.161829 0.075855
0.029511 0.176323 0.080443
0.029554 0.170592 0.078089
0.029560 0.163573 0.075743
0.029669 0.172072 0.078187
0.029685 0.165821 0.075808
0.029740 0.167876 0.095514
0.029789 0.174312 0.078206
0.029887 0.167867 0.075953
0.029914 0.171677 0.090757
0.029930 0.176459 0.084530
0.029939 0.163532 0.073830
0.029949 0.161423 0.073893
0.029955 0.169764 0.093383
0.029955 0.178742 0.080244
0.029963 0.172434 0.089680
0.029966 0.174205 0.087449
0.029977 0.176437 0.078236
0.029990 0.171075 0.091438
0.030004 0.170045 0.076073
